ply
format ascii 1.0
element vertex 1500
property float x
property float y
property float z
end_header
<<<<<<< HEAD
-0.395684 -0.090311 0.460493
-0.168189 -0.364075 0.449499
0.386306 -0.107802 0.420495
0.423362 0.112674 0.491558
-0.463542 0.161942 0.412469
0.252202 -0.126668 0.488776
0.099813 0.347346 0.495601
-0.321199 -0.380149 0.444275
-0.248189 -0.094492 0.445957
-0.223371 -0.168839 0.452175
0.450939 -0.312272 0.415289
-0.000502 0.070789 0.413968
0.356246 0.079790 0.444314
-0.402889 0.170281 0.401658
0.430118 0.389260 0.417426
-0.038699 0.444546 0.468654
0.147601 0.167651 0.493455
0.074344 0.411090 0.439713
-0.090453 -0.449776 0.423888
0.221644 0.472578 0.480820
0.124669 0.234788 0.413526
-0.014225 -0.120196 0.495913
0.232904 0.214960 0.404605
0.185693 -0.276662 0.456391
-0.039669 0.048684 0.414790
-0.301367 -0.239202 0.459934
0.488242 -0.082054 0.416723
0.243036 -0.132248 0.422338
-0.011251 -0.212798 0.466393
-0.059264 0.198924 0.472166
0.225171 -0.229631 0.405817
-0.045551 -0.010213 0.499925
0.390925 -0.284326 0.456292
-0.227969 0.020729 0.497027
0.239931 0.382473 0.476313
0.198415 -0.029775 0.499348
0.433398 -0.034587 0.441311
0.092266 -0.349728 0.494864
-0.058737 -0.069744 0.481697
0.065879 -0.443825 0.419141
0.467967 0.159596 0.412384
0.050533 0.148950 0.487527
0.405975 -0.441783 0.487810
-0.300492 0.348191 0.476960
-0.472322 -0.340062 0.482187
-0.267118 0.343912 0.499597
0.361775 -0.340081 0.405695
0.337583 -0.498394 0.483898
-0.244736 -0.290954 0.453198
-0.393319 0.294063 0.482727
0.148151 -0.262538 0.468118
0.054148 -0.139892 0.474389
0.302590 0.430033 0.453706
0.043988 0.274216 0.409634
0.203302 0.496262 0.413709
0.015671 -0.450200 0.493946
-0.066434 -0.482707 0.417935
-0.442119 0.213620 0.475042
-0.082844 -0.384181 0.491360
0.277754 0.465076 0.478140
0.362794 0.018562 0.444306
-0.276949 0.184507 0.485851
-0.349213 0.056748 0.450911
0.171602 0.142992 0.440465
-0.415962 -0.176261 0.413029
-0.202796 -0.425626 0.408162
-0.063413 0.235368 0.403898
0.272801 -0.001719 0.414805
0.054059 -0.190184 0.487101
0.312499 -0.333142 0.404291
-0.398130 0.102809 0.463452
-0.136955 0.397818 0.411185
-0.063614 -0.450586 0.492397
-0.320947 0.282090 0.454292
-0.305426 -0.200427 0.464874
-0.362316 0.430787 0.468195
0.116877 0.238765 0.423994
-0.420028 -0.318798 0.495925
0.483311 0.260842 0.457854
0.418679 -0.472661 0.442746
-0.444758 0.109764 0.442311
0.102718 0.455776 0.497394
0.320052 -0.223083 0.466165
-0.267838 0.271904 0.433743
0.156822 -0.083969 0.469451
0.078404 -0.364885 0.480876
-0.370027 -0.207729 0.467690
0.309923 -0.317375 0.427405
0.322585 0.338931 0.418913
-0.395060 -0.495717 0.404318
-0.334788 -0.347778 0.434756
-0.220105 0.121185 0.451435
0.016924 -0.166116 0.494849
0.365453 0.437008 0.411975
0.237417 0.123267 0.459573
0.368189 0.463157 0.466719
0.025100 0.267596 0.428069
0.447195 -0.392175 0.437382
0.481680 0.109601 0.430495
-0.030044 -0.485855 0.425343
0.022646 0.315392 0.425139
0.049067 0.195304 0.437697
-0.345445 -0.343741 0.482193
-0.421908 -0.444883 0.487520
-0.004537 0.475073 0.426122
0.047658 -0.226008 0.428903
-0.117533 0.348444 0.476892
0.495308 0.111482 0.426028
-0.193280 -0.117984 0.409264
-0.150633 -0.202587 0.442839
-0.448764 -0.479401 0.469380
-0.097266 0.133193 0.417342
0.411188 -0.014942 0.414317
0.229664 0.092742 0.456996
-0.408108 0.157467 0.423130
0.287122 0.164252 0.453115
-0.359515 0.484791 0.401803
0.165692 0.221395 0.454961
0.172498 -0.455056 0.431358
0.366089 -0.169821 0.441640
0.162313 0.299847 0.412609
-0.073002 0.102582 0.459832
0.037178 0.183383 0.483323
0.418595 0.249461 0.425700
0.454829 0.465045 0.407927
0.113138 0.238513 0.411969
-0.303672 0.318362 0.496118
0.072844 0.072394 0.414342
-0.127823 -0.314197 0.432090
-0.024766 -0.277497 0.479580
0.023937 0.058966 0.453192
0.170244 0.342900 0.428384
0.040639 0.479027 0.446066
-0.096227 -0.032105 0.474605
0.471345 0.157258 0.407508
0.328689 0.228296 0.456610
0.449402 -0.371180 0.449751
0.454907 0.129699 0.433775
0.145886 -0.009958 0.403930
0.022229 0.198041 0.468466
-0.329764 -0.399945 0.443892
0.099666 0.431340 0.480247
-0.023878 -0.317027 0.477648
0.430442 -0.020117 0.436338
-0.377568 0.141056 0.480501
0.159189 -0.325986 0.413518
0.085563 0.196385 0.473027
-0.033019 -0.330888 0.445223
-0.237750 0.304842 0.475681
0.260702 -0.423819 0.450101
0.129618 -0.012682 0.455917
0.488046 0.291179 0.475749
-0.021111 0.007005 0.474659
-0.090067 -0.246138 0.411187
-0.203081 0.209435 0.477066
0.061312 -0.462889 0.478165
-0.423604 -0.412041 0.438804
-0.483468 0.248370 0.402451
-0.025331 0.068010 0.420138
-0.394049 0.479453 0.423849
-0.207932 0.364048 0.483864
-0.188911 0.415976 0.421081
0.245747 0.216288 0.429792
0.357684 0.235637 0.454022
0.371524 0.456397 0.427412
-0.196029 -0.331578 0.476300
-0.327556 -0.177681 0.467249
0.293757 0.287931 0.411136
0.333449 -0.476224 0.440454
-0.166299 0.001630 0.452400
-0.063800 0.069589 0.426661
-0.438165 0.454762 0.472142
-0.427108 0.056026 0.459500
-0.406424 0.456901 0.477157
0.132022 0.071242 0.411083
0.106202 0.499652 0.485358
-0.476554 0.159476 0.459139
0.212084 0.493885 0.416199
0.134508 0.459246 0.447223
0.457829 0.200308 0.467625
-0.431275 -0.211228 0.478290
-0.490443 -0.170728 0.482002
-0.154063 0.454564 0.406598
0.181102 -0.435541 0.408771
-0.006738 -0.141712 0.404407
0.060399 -0.327516 0.423776
0.415945 -0.364627 0.477265
-0.321103 0.455654 0.426533
-0.006050 0.343396 0.440986
0.277072 -0.217692 0.487113
0.320185 0.408959 0.448139
0.456790 0.176117 0.442061
-0.137230 -0.394954 0.407628
-0.364029 0.210908 0.412664
0.250079 -0.163074 0.425236
-0.366914 -0.262816 0.466131
0.469397 -0.393630 0.431276
-0.072851 0.085956 0.447082
0.013472 0.429761 0.451286
-0.113345 0.167164 0.492995
0.170650 -0.054435 0.422188
-0.296616 -0.460884 0.486052
0.261545 0.191461 0.447629
0.177536 0.031136 0.498656
0.300346 0.450496 0.414258
-0.001011 0.012891 0.440302
-0.406559 -0.370870 0.450426
0.128121 -0.286525 0.424089
0.119615 0.440640 0.486536
-0.040714 -0.425976 0.438548
0.335530 0.123501 0.472659
0.419357 0.036853 0.437390
-0.035918 -0.210048 0.429594
-0.367895 -0.394709 0.417144
0.076339 -0.055945 0.454189
-0.279692 -0.373883 0.460536
-0.010992 -0.490598 0.408298
0.090220 -0.227144 0.444550
0.093800 0.204910 0.419949
-0.434070 -0.080156 0.433847
0.180747 -0.339149 0.480324
0.447822 -0.383609 0.467931
-0.413696 -0.180677 0.432067
0.383976 0.311631 0.447575
-0.338972 0.008024 0.454454
-0.359867 -0.315192 0.410558
-0.438395 -0.387301 0.489089
0.261461 0.377069 0.471594
-0.369698 0.411035 0.477242
-0.085108 0.230446 0.419064
-0.221507 0.440060 0.453476
0.307970 -0.366651 0.462692
0.010397 0.305592 0.446212
-0.268688 0.002943 0.483800
0.006330 0.135123 0.463551
0.009480 0.100427 0.431046
0.161971 0.315981 0.496012
0.105153 0.346645 0.472209
0.203409 0.110984 0.499867
0.101208 0.293933 0.405964
0.045230 0.037471 0.480496
0.328624 -0.331259 0.442854
0.283851 0.381145 0.405133
0.141589 0.428698 0.412808
-0.476444 -0.298912 0.403050
0.112980 0.171405 0.409899
-0.274147 0.079717 0.439614
-0.152361 0.398606 0.481118
0.003406 -0.374867 0.469772
0.288488 0.033265 0.490072
0.407779 -0.403198 0.485608
-0.019988 -0.283794 0.454490
0.309083 -0.383002 0.450185
0.245279 0.180227 0.473185
0.172674 0.223787 0.446374
-0.358330 -0.425673 0.439989
-0.237122 -0.018818 0.447563
0.321319 0.011878 0.465334
0.054639 -0.377244 0.421157
-0.141652 0.447790 0.476409
0.386052 -0.210250 0.498670
0.176983 -0.008886 0.406278
0.381598 0.177345 0.466474
0.193100 -0.192145 0.479410
-0.183015 -0.255489 0.438331
0.286989 -0.352198 0.438546
0.498026 0.114963 0.406206
0.374551 -0.247631 0.457146
0.064763 0.140537 0.400271
0.398556 -0.379917 0.474759
0.321475 0.241292 0.472298
-0.452566 -0.442965 0.459261
0.481416 0.366583 0.473379
0.299716 -0.060095 0.493820
-0.086453 0.139792 0.432909
-0.287004 0.031066 0.481123
0.323592 0.241750 0.426361
-0.461458 0.435210 0.494965
-0.014342 0.465538 0.481200
-0.251599 0.332412 0.478804
-0.311206 -0.238436 0.415675
0.440492 0.327789 0.403516
-0.211593 0.371971 0.487729
0.338146 0.405027 0.420335
-0.406134 0.032973 0.475821
-0.440515 -0.406319 0.446171
0.367446 -0.498060 0.408532
0.110593 0.344352 0.423376
0.452651 0.368967 0.471188
0.281819 -0.246442 0.479736
-0.262716 -0.262583 0.471114
-0.423200 0.011286 0.498427
-0.190872 -0.173720 0.471324
-0.441004 0.480917 0.425754
0.156472 0.311866 0.435769
-0.147399 -0.466364 0.484968
0.278579 0.491470 0.431130
0.176968 0.293646 0.433946
0.398989 -0.481460 0.430886
0.273436 0.478708 0.454083
0.142796 0.148992 0.413309
-0.083695 -0.146348 0.494065
0.074947 -0.207858 0.400262
0.332932 -0.086259 0.462164
-0.179147 0.089673 0.468273
-0.245112 -0.126611 0.486239
0.248458 0.410230 0.485273
0.012209 -0.394002 0.418195
0.419757 0.240712 0.465850
0.449502 -0.337312 0.486812
0.332184 0.079524 0.415056
-0.035890 -0.137650 0.410860
-0.277804 -0.224021 0.487361
0.176651 0.327850 0.483463
0.039304 0.465624 0.413783
-0.193476 0.022422 0.461013
0.115391 -0.283174 0.469348
-0.167426 -0.157933 0.462790
0.230058 -0.464092 0.415006
-0.026208 0.125803 0.459867
0.222446 0.137105 0.431644
-0.089761 0.278435 0.424936
-0.099773 -0.247781 0.437391
-0.221853 -0.061189 0.464606
-0.056370 -0.253814 0.416768
-0.360681 0.213163 0.410874
0.119758 0.038608 0.488112
0.173348 -0.171107 0.482195
0.341532 0.086924 0.480899
-0.328608 -0.275914 0.425344
0.101414 -0.341556 0.406868
-0.272812 -0.462263 0.425872
0.264270 0.099625 0.448041
0.133258 0.489577 0.423494
-0.385091 -0.324009 0.475691
0.116658 -0.237206 0.401562
-0.194967 -0.081147 0.405505
0.278276 0.012686 0.469818
0.419923 -0.414599 0.463808
0.068820 0.387519 0.471605
0.042513 -0.457494 0.471022
0.439628 -0.165074 0.451301
0.107338 -0.290075 0.491169
-0.176158 -0.368621 0.413047
0.497924 -0.356735 0.493416
-0.319198 -0.160217 0.470164
0.350362 0.209624 0.437071
-0.498639 -0.107757 0.469027
-0.384848 -0.306373 0.497841
-0.486086 0.221970 0.465081
0.044104 -0.451426 0.488942
-0.461529 0.379666 0.467988
0.357346 -0.492728 0.442242
0.012278 -0.229836 0.444738
-0.059175 -0.208308 0.480834
-0.011236 -0.083814 0.467871
0.418496 -0.078053 0.421356
-0.233776 -0.024293 0.467991
0.468923 0.153613 0.410056
-0.487640 -0.465550 0.430362
0.418719 -0.051070 0.406569
-0.015549 -0.340143 0.406357
-0.423641 0.433233 0.408279
0.387115 -0.487666 0.456957
-0.493149 0.056512 0.468081
0.446702 0.352372 0.481435
0.047108 0.110939 0.497404
0.431797 0.358604 0.420398
-0.400881 -0.036184 0.479968
0.146743 -0.412833 0.424643
-0.102102 0.395668 0.409771
-0.100338 0.139095 0.473693
0.440845 0.417244 0.470408
0.008823 0.472948 0.442836
-0.028731 -0.062783 0.470836
-0.397220 0.299088 0.492083
0.193848 -0.382341 0.487994
-0.068352 -0.398051 0.415924
-0.154164 0.405363 0.409634
0.459187 0.008327 0.468969
-0.305855 0.163737 0.441775
0.275269 0.204850 0.480279
-0.285171 -0.456797 0.422247
0.201394 0.096542 0.413926
-0.441334 -0.047172 0.460634
-0.092862 -0.166525 0.462418
0.143782 0.238398 0.482844
0.267305 0.313570 0.464187
0.070370 0.312207 0.434137
0.290980 -0.193084 0.489199
-0.304099 0.467350 0.445489
0.147407 -0.270241 0.497734
-0.070842 -0.194430 0.401222
0.303977 0.393188 0.427067
-0.182241 0.448389 0.470612
-0.163030 -0.469969 0.409070
0.139895 -0.460884 0.408477
0.473600 -0.105839 0.483571
-0.077650 0.252315 0.402356
0.209966 -0.214208 0.468874
-0.110060 -0.055697 0.494810
-0.280892 -0.113952 0.481028
0.436269 -0.335758 0.467461
0.150599 -0.207797 0.449467
-0.135859 0.363096 0.420335
-0.163515 0.373265 0.443854
-0.435811 -0.260232 0.440486
0.198847 0.131836 0.420147
-0.100574 0.010034 0.468161
0.198404 0.434596 0.411385
-0.387317 -0.350802 0.424193
0.490680 -0.063612 0.459139
0.362518 0.203586 0.494498
-0.329484 -0.246961 0.403769
-0.480935 0.163095 0.470725
0.428005 -0.336186 0.455925
-0.332705 -0.011614 0.461930
-0.150777 0.053179 0.481368
-0.479006 0.298745 0.463611
0.049731 0.195399 0.416415
-0.065049 -0.329463 0.478457
-0.366335 -0.119492 0.437246
0.027693 -0.205040 0.456035
-0.312034 -0.207420 0.443711
0.291220 -0.105359 0.498914
-0.224487 0.462922 0.427528
-0.139720 -0.216335 0.447263
0.239235 0.369872 0.458576
0.017143 0.153623 0.408234
0.085127 -0.199214 0.412176
0.191721 0.032233 0.419177
-0.267853 0.319554 0.477702
-0.307281 0.293943 0.493122
0.220625 0.230074 0.479661
0.078969 0.439318 0.433898
0.265445 0.057248 0.445635
-0.477093 -0.336695 0.408209
0.221171 -0.032740 0.491294
0.489650 0.059631 0.415974
0.080561 0.438815 0.446655
0.405851 0.486305 0.443965
-0.341434 0.314331 0.419072
-0.120034 -0.062902 0.459081
0.270802 -0.385740 0.416474
0.324548 -0.186240 0.431028
-0.204373 0.273433 0.437052
-0.036980 -0.204663 0.407127
-0.345317 0.003371 0.458092
-0.115150 -0.224193 0.482815
0.327483 -0.010008 0.420550
0.308879 -0.417635 0.439618
-0.340817 -0.204393 0.424462
-0.181702 -0.330687 0.475176
-0.193823 0.277668 0.429908
-0.336484 0.008421 0.400266
0.111503 -0.172705 0.476302
0.079324 -0.470912 0.440408
-0.033227 0.051548 0.413873
-0.110419 -0.426208 0.489191
-0.190871 0.246011 0.416944
-0.080579 0.191919 0.447514
0.422725 0.496919 0.474534
-0.092036 -0.397060 0.460664
0.121067 -0.459125 0.466888
-0.345626 -0.369847 0.402999
0.205264 -0.157661 0.407038
0.364673 0.427200 0.495782
0.278635 0.187372 0.498163
-0.099425 -0.490795 0.412318
0.467278 -0.294424 0.474059
-0.094765 0.435726 0.464187
0.487869 -0.168667 0.402715
-0.017721 0.167879 0.400931
-0.147845 0.265686 0.413027
-0.469786 0.014892 0.418260
0.201989 -0.365743 0.415414
0.000729 -0.243663 0.442971
-0.396272 0.251192 0.420111
0.469153 -0.192726 0.444786
0.110981 -0.008656 0.413223
-0.382078 -0.388089 0.418743
-0.055979 -0.469949 0.414693
-0.332684 -0.380448 0.476690
0.342318 -0.121319 0.453950
-0.023075 0.260354 0.403994
-0.276582 -0.260279 0.400384
0.030998 0.165206 0.446617
-0.333524 -0.061513 0.480936
0.401322 0.357038 0.475745
0.279337 -0.465599 0.491109
0.204095 -0.015459 0.421158
-0.483786 0.221543 0.469350
-0.295465 -0.429931 0.499043
-0.483158 0.479982 0.442338
0.292764 0.480161 0.487569
-0.477816 -0.364594 0.492046
-0.294541 0.073694 0.400177
0.174653 -0.373018 0.423095
-0.105435 0.278718 0.481673
0.243246 0.244073 0.402088
-0.352409 0.400133 0.927894
-0.370141 0.442643 0.636625
0.000179 0.428839 0.834561
-0.470713 0.432703 0.520933
-0.441940 0.421227 0.822901
-0.080368 0.483093 0.802760
-0.431876 0.449718 1.077965
0.413646 0.441586 0.804178
-0.362339 0.431516 0.599793
-0.420951 0.469450 0.616957
-0.099173 0.496214 0.825381
-0.297301 0.418166 0.959360
-0.443226 0.418285 0.551634
-0.227222 0.492477 0.551822
-0.287531 0.407515 0.874751
-0.245748 0.409495 0.661348
0.270422 0.419908 1.026683
-0.302089 0.430915 0.676380
0.162161 0.487300 0.535767
-0.454413 0.487223 1.064896
-0.375364 0.494137 0.886804
-0.083844 0.483074 0.810470
0.372308 0.418242 0.853988
-0.258227 0.437886 0.533822
0.121504 0.484479 0.634617
-0.164040 0.470465 0.553631
-0.074079 0.492206 0.619524
-0.310988 0.466535 0.967140
-0.212810 0.496929 0.742568
-0.079439 0.434632 0.637621
0.358219 0.404870 0.591545
0.313856 0.476617 0.733325
0.404327 0.445674 1.128255
0.364416 0.402992 0.653230
-0.009487 0.412234 0.942408
-0.448845 0.420940 0.689356
0.250133 0.436156 0.704098
0.480678 0.443875 0.832550
-0.075100 0.497081 1.153676
0.275516 0.464178 1.174515
-0.323140 0.408050 0.954186
-0.126324 0.478125 1.036104
-0.224741 0.475484 0.908369
-0.350442 0.478763 1.071544
0.406507 0.481226 0.804915
-0.370912 0.441273 1.085606
0.303303 0.481803 0.567800
-0.271209 0.459036 0.982735
-0.221962 0.482936 0.889140
0.192562 0.404208 0.727525
-0.391945 0.436140 0.611935
-0.256417 0.402641 0.723844
0.434075 0.428267 0.958782
-0.189659 0.494835 0.943398
-0.372822 0.437712 1.000642
-0.265837 0.498525 1.172111
0.157622 0.478619 0.756250
-0.360139 0.415137 0.611292
-0.444928 0.455321 0.774849
0.412051 0.469321 1.167631
-0.192537 0.415984 0.530997
0.158451 0.486744 0.789219
-0.430392 0.463126 1.195260
-0.307263 0.442969 0.670736
-0.237720 0.442595 0.832399
0.430021 0.444662 0.783821
-0.125097 0.490949 1.059833
0.482767 0.425442 0.563047
0.275443 0.459171 1.018891
0.031686 0.487783 0.518512
0.295682 0.466631 1.190791
-0.218328 0.436332 0.858817
0.033320 0.489133 0.520724
0.216503 0.442138 0.543803
0.356071 0.464708 0.744666
0.265221 0.477986 0.678512
0.439533 0.439316 0.592700
0.497677 0.483468 0.680428
-0.115388 0.422151 0.919322
-0.378927 0.457697 1.136241
-0.396643 0.424346 0.622454
-0.328347 0.477877 0.803796
0.224501 0.448953 0.838145
-0.356737 0.454215 0.632376
0.295716 0.471259 0.566575
0.004445 0.406900 1.152494
-0.012501 0.491607 1.091804
0.446153 0.496747 1.116659
0.458582 0.485077 1.187179
0.175530 0.497412 1.078507
-0.191713 0.425212 0.833132
0.288241 0.453758 0.654571
0.091963 0.463112 0.509514
-0.149390 0.481997 0.921431
-0.237944 0.420042 0.898767
0.229126 0.413267 0.971420
-0.260119 0.485535 0.508092
-0.120001 0.498347 0.754840
-0.119726 0.436670 0.579835
0.441975 0.474176 0.519137
0.359984 0.401359 0.784623
-0.312145 0.429699 1.195316
-0.345463 0.497034 0.671415
-0.436498 0.490659 0.790773
0.320105 0.498242 0.946843
-0.166762 0.496182 0.664476
-0.416801 0.467692 0.591390
0.303174 0.487042 1.028348
0.034403 0.430097 1.154753
-0.488879 0.475815 0.761558
0.028737 0.406965 1.096208
-0.006596 0.418569 0.709092
0.267903 0.448612 0.659698
0.292997 0.441908 1.198301
-0.171740 0.453892 0.940214
0.330412 0.452242 0.744703
-0.141381 0.406859 0.892325
0.424659 0.466880 0.666485
-0.076841 0.437431 0.843655
0.478297 0.489315 1.023122
-0.394249 0.498480 0.587207
-0.003307 0.422451 0.696451
0.455340 0.401035 0.530796
-0.388167 0.408607 1.140940
-0.005959 0.461909 1.190964
-0.056671 0.406720 0.692363
0.034413 0.486412 0.527632
0.406881 0.497004 1.074095
-0.124141 0.470042 0.763031
0.156129 0.418691 1.103140
-0.076346 0.471559 0.843183
0.146606 0.480178 0.791863
-0.000988 0.417977 0.794613
-0.246816 0.456034 0.637065
-0.039866 0.495828 1.135205
-0.485981 0.495478 0.578263
-0.464855 0.423221 0.975334
0.257856 0.458240 1.137324
0.206519 0.456052 0.930316
-0.099739 0.418390 0.948282
-0.191342 0.444962 0.822631
-0.072017 0.457390 1.119727
0.386647 0.477307 1.176864
-0.134439 0.421939 0.975380
-0.190178 0.414145 0.666921
0.355786 0.433136 0.519355
-0.367187 0.491006 1.081422
-0.376545 0.451723 0.594835
0.258705 0.418584 0.623796
0.398967 0.458788 0.580953
-0.170486 0.471901 0.612760
0.366485 0.479801 0.580215
-0.028418 0.469552 0.898848
0.219980 0.436693 1.145525
0.219162 0.430548 0.569397
-0.046017 0.495744 0.894734
-0.123389 0.456212 0.778242
-0.296824 0.420099 0.821370
-0.029950 0.471210 0.654557
0.370245 0.406718 0.739731
-0.350636 0.422836 0.638579
0.435926 0.477919 0.786410
-0.431262 0.461690 1.049017
-0.151037 0.406517 1.096690
-0.114979 0.464356 1.012643
0.272391 0.474206 1.073975
0.104363 0.446270 0.683377
0.392998 0.423611 1.100307
0.023595 0.441675 0.553712
-0.194325 0.496421 0.614356
0.393132 0.451850 1.112720
-0.356613 0.439565 1.068664
-0.003735 0.469333 0.818115
0.424351 0.463104 1.002642
0.425932 0.414195 0.597079
-0.025402 0.468815 1.118713
-0.301483 0.451908 0.650871
-0.117560 0.479475 0.763078
-0.020205 0.476599 0.807536
-0.216944 0.438741 0.554743
-0.425490 0.411762 1.182214
0.374136 0.456420 0.740009
0.478660 0.428370 0.911760
-0.381832 0.432865 0.505348
-0.294111 0.467139 0.852722
-0.444234 0.465751 1.181386
0.233609 0.458062 0.671012
0.041443 0.409769 0.802564
0.112095 0.487957 0.772415
0.355017 0.473386 0.748884
-0.327666 0.475732 1.098542
0.192088 0.431496 1.063470
-0.435880 0.485134 0.788858
-0.405711 0.444524 1.091291
-0.212206 0.461129 0.570457
-0.064275 0.411473 0.727221
0.454225 0.439152 0.861611
0.418834 0.416203 0.722287
-0.092763 0.421291 1.069298
0.025737 0.461958 0.592483
0.014313 0.448256 1.016508
0.286975 0.438982 1.007397
0.096424 0.404465 0.883961
0.348174 0.458419 0.907581
-0.294919 0.478722 1.137443
-0.212855 0.495357 0.736380
-0.218633 0.448399 0.732607
0.304650 0.482189 0.682834
0.310658 0.469345 0.647015
-0.494858 0.499176 0.746366
-0.217096 0.431188 0.706495
0.068029 0.491972 0.697194
-0.366418 0.448653 0.816698
0.173962 0.427921 1.054468
0.149273 0.401728 0.540560
0.211309 0.462237 1.082838
0.286703 0.475362 0.645089
0.288123 0.459212 0.802768
-0.241355 0.426212 0.731264
0.052149 0.411233 0.692787
0.266215 0.468712 0.575457
0.303096 0.476455 0.784490
-0.260985 0.487487 0.701247
-0.119971 0.474827 1.004546
-0.300867 0.428386 1.077580
0.257669 0.439454 1.031501
0.413030 0.428092 0.880607
-0.221799 0.434201 1.013244
0.367253 0.451068 0.808476
-0.200537 0.456202 1.065857
0.433107 0.406210 1.148231
0.206208 0.453879 0.929891
-0.143516 0.445533 0.664630
-0.008349 0.466881 1.050668
-0.177756 0.476335 0.944389
-0.277907 0.415920 0.767538
0.302952 0.405553 0.530523
0.368350 0.418217 0.854987
-0.367839 0.407046 0.603279
-0.289903 0.414260 0.877923
0.127730 0.416702 0.602503
0.231839 0.494952 0.863587
-0.471756 0.473872 0.530160
-0.285718 0.432174 0.655817
0.235654 0.405260 1.179727
-0.243988 0.472583 1.153329
-0.207554 0.402990 1.110571
-0.062195 0.465406 0.508570
-0.399674 0.404295 1.199466
-0.470556 0.467828 0.798750
0.136067 0.435096 0.935153
-0.190003 0.431458 0.747423
0.090499 0.464725 0.673416
-0.142465 0.446022 0.863744
0.366777 0.409926 0.649335
-0.051224 0.488943 0.502019
0.474009 0.465671 0.709035
0.455176 0.426672 0.990067
0.439219 0.435475 1.124904
0.267594 0.400630 0.918266
-0.089717 0.495667 0.844539
-0.444101 0.446483 0.843407
0.281883 0.496350 1.017210
0.366679 0.409300 0.859446
-0.191459 0.407978 0.844739
0.453470 0.473755 0.911271
-0.076625 0.425561 0.511557
0.466252 0.454156 0.560512
-0.014070 0.485066 0.916154
0.296413 0.445605 0.787589
-0.237971 0.466496 0.984688
0.082903 0.497585 1.129362
0.252625 0.431314 1.145654
-0.181688 0.439921 1.087824
-0.472685 0.463800 0.930874
0.453759 0.481626 0.764926
0.224632 0.432929 0.819617
-0.316252 0.408056 0.548128
0.375587 0.470474 0.681363
-0.231875 0.428167 0.627397
-0.082121 0.444978 0.921674
0.021621 0.460712 0.836728
0.410092 0.427380 0.752911
-0.186914 0.436820 0.986498
0.497680 0.496661 0.889187
0.141408 0.442955 0.802020
0.250923 0.439968 0.588250
0.101982 0.490889 0.583130
0.196309 0.479731 0.739989
0.222675 0.437296 0.521635
0.131811 0.417255 0.643990
0.190933 0.491571 1.165471
-0.268900 0.489225 0.697963
0.317820 0.457218 0.647373
0.227050 0.434109 0.844534
0.011803 0.437453 1.039207
0.198545 0.433243 0.700992
0.075688 0.466557 0.934312
-0.140346 0.421118 0.676787
0.027261 0.439318 0.511117
-0.020109 0.445406 1.095417
0.053616 0.491156 0.956321
-0.322647 0.444680 0.562690
-0.297886 0.478631 0.654765
-0.450451 0.459351 0.554166
0.211951 0.447098 0.953916
0.134162 0.462109 0.861184
-0.155414 0.494095 1.141316
-0.433690 0.472468 0.942186
0.137789 0.458598 1.028864
0.354693 0.470840 0.515399
0.125224 0.444698 0.669229
0.366877 0.420511 0.632140
-0.174744 0.438093 0.681032
0.451097 0.419755 1.080090
-0.401502 0.436865 0.817737
-0.474164 0.405113 0.733168
0.107457 0.484540 0.642395
-0.210456 0.431483 0.738233
-0.320817 0.405120 1.054256
0.017503 0.449137 1.097681
-0.165328 0.422046 0.786030
0.013388 0.459329 0.557054
0.016000 0.453095 0.577040
-0.472448 0.467937 0.935179
-0.163521 0.471248 1.180364
0.350553 0.492474 1.091769
-0.467274 0.408787 0.669715
-0.284173 0.476360 0.955661
0.380452 0.413881 1.186193
-0.008119 0.408683 0.664722
0.083979 0.454184 0.558412
-0.227889 0.401503 0.999639
0.150949 0.457116 0.793041
-0.461978 0.444926 0.883257
-0.117438 0.450933 0.644993
0.454889 0.480747 0.966549
-0.485128 0.413242 1.061546
0.452102 0.451085 1.193611
-0.272081 0.477833 0.971466
-0.058259 0.410223 0.588524
0.046803 0.414972 1.141819
0.349298 0.469690 0.834978
0.219482 0.435837 1.002341
0.362210 0.440989 1.090684
0.093537 0.475054 0.686323
0.081702 0.476709 0.540616
-0.015027 0.423490 0.640213
-0.063248 0.426819 0.960327
-0.291235 0.428652 0.939588
-0.010218 0.437964 1.150776
-0.049668 0.462362 0.993407
-0.247260 0.429107 0.505998
-0.110541 0.486492 0.540071
-0.295061 0.415742 0.511348
0.182380 0.423939 1.132800
0.296426 0.423359 1.039872
-0.136197 0.460315 0.542708
-0.027085 0.402042 0.808106
0.426865 0.446360 0.752221
0.089109 0.463578 1.176196
-0.066532 0.435126 1.118054
-0.190840 0.421957 0.700716
-0.339936 0.480616 0.695052
0.270698 0.452664 0.730430
-0.440228 0.412918 0.669431
-0.225833 0.485469 1.130352
0.000894 0.495791 0.978791
0.197094 0.464516 0.954663
-0.074635 0.469220 0.833487
-0.440721 0.456619 1.097709
-0.402296 0.458591 1.020825
-0.127008 0.483018 0.560951
-0.170888 0.468538 0.812888
-0.196989 0.472937 0.579853
-0.491240 0.448791 1.112418
-0.297665 0.498253 1.120460
-0.086871 0.484965 0.695292
0.389376 0.463455 0.533785
0.084054 0.496787 0.779408
0.263220 0.459817 0.518372
0.124060 0.421825 0.611054
0.132244 0.401028 0.723798
0.482046 0.454052 0.858599
0.372640 0.401523 0.584164
0.170767 0.475473 0.987744
-0.034678 0.478224 0.701306
-0.036267 0.409443 1.186841
0.264829 0.413149 0.875227
-0.455705 0.417977 0.602688
0.203595 0.433305 1.069897
0.471523 0.450031 0.801798
0.387666 0.407242 0.995450
-0.189656 0.409996 0.599334
-0.104708 0.405422 1.142174
0.493523 0.413960 0.928617
-0.038015 0.474280 1.117102
0.483540 0.415771 0.711696
-0.407105 0.454062 0.569297
-0.082090 0.477662 0.994038
-0.091137 0.453315 1.154465
-0.278237 0.439424 0.666638
0.397616 0.405040 1.087625
0.189732 0.494151 0.504277
0.191097 0.457424 0.505082
0.180339 0.435184 0.899349
0.182891 0.455175 0.593550
-0.247992 0.433031 0.917576
-0.127143 0.460585 0.663276
0.211942 0.437290 0.979813
-0.057452 0.411544 0.959079
0.483663 0.487817 0.977442
-0.496424 0.450487 1.124878
-0.355218 0.408502 0.997646
-0.361885 0.472077 1.028080
0.066929 0.470605 1.192578
0.354761 0.471045 1.027156
0.171313 0.440904 0.601449
-0.179555 0.488553 1.132429
-0.161137 0.449709 1.015814
0.032634 0.480515 0.925182
-0.048772 0.461161 0.721809
0.133362 0.437806 1.065979
-0.214723 0.444017 1.137158
-0.387709 0.462928 0.514339
-0.142731 0.401788 0.827702
-0.298496 0.432668 0.622562
-0.449204 0.452277 1.033728
-0.412420 0.470210 0.584581
-0.173566 0.480249 0.712154
0.275274 0.441158 1.104748
-0.471667 0.401316 0.937982
-0.172570 0.484773 1.170533
0.400972 0.400898 0.600138
-0.272884 0.499558 0.560731
-0.286447 0.464642 1.155436
-0.011859 0.437452 1.142909
-0.128788 0.400739 0.882689
-0.267316 0.499019 1.141260
0.362316 0.497999 0.531371
-0.315588 0.423788 1.194725
-0.240152 0.429924 0.596558
0.497313 0.405958 1.182766
-0.335194 0.483522 0.996490
0.479953 0.407835 0.697700
-0.196378 0.496601 1.166975
-0.420121 0.400482 0.654038
-0.231735 0.496299 1.014070
0.264445 0.439384 0.553877
-0.332961 0.436455 1.175795
-0.221194 0.473371 1.096964
-0.383185 0.448690 0.738810
0.082279 0.410851 0.978531
-0.230724 0.426805 0.831391
0.030222 0.466889 0.562095
0.475237 0.490384 0.827603
0.432287 0.499636 1.144373
0.302108 0.493703 1.086952
-0.487267 0.493987 0.628212
-0.233237 0.419939 1.014561
-0.172605 0.481181 0.833928
-0.388880 0.458312 0.571836
-0.459300 0.401113 1.111035
0.210124 0.449908 0.926382
0.310078 0.468006 1.163049
-0.005733 0.418935 0.799995
-0.359344 0.422179 0.880660
-0.120726 0.475160 0.674623
-0.229104 0.475998 0.721948
0.306699 0.447048 0.889052
-0.064571 0.478628 0.827904
0.224821 0.476450 0.841287
0.354579 0.450583 0.656495
-0.034330 0.452524 1.082756
0.274209 0.433891 0.882507
0.033418 0.418097 0.761058
0.417850 0.474943 0.739824
-0.420915 0.467354 0.657895
0.223001 0.406282 0.725109
0.133772 0.497259 0.866104
0.068930 0.409408 1.055805
0.413635 0.447118 0.701882
0.186126 0.483377 0.529458
-0.444896 0.499963 0.713028
-0.332748 0.419579 0.723751
0.419821 0.441160 0.590462
0.174628 0.441640 0.726708
0.056551 0.482693 1.077566
-0.376195 0.447991 0.951077
0.013253 0.462804 0.520251
-0.387148 0.405067 0.942062
0.091145 0.449502 0.724103
0.415770 0.440187 1.081585
0.345745 0.432625 0.564656
-0.471010 0.438502 0.963141
0.251208 0.434920 0.606927
-0.324919 0.443392 1.118223
-0.001591 0.420650 1.036573
0.037235 0.474857 1.060824
0.234423 0.476518 0.764148
-0.382913 -0.382598 0.212663
-0.379349 -0.437761 0.383464
-0.446841 -0.436678 0.306993
-0.373000 -0.447379 0.383155
-0.355046 -0.448061 0.085676
-0.415875 -0.359190 0.201667
-0.408638 -0.396930 0.110629
-0.359760 -0.376907 0.191934
-0.404330 -0.427077 0.315349
-0.353716 -0.405901 0.283025
-0.411196 -0.357078 0.068643
-0.360503 -0.351462 0.210783
-0.402474 -0.422453 0.245443
-0.387176 -0.415220 0.197107
-0.409510 -0.446463 0.378112
-0.413140 -0.369711 0.227930
-0.436898 -0.396775 0.287789
-0.364657 -0.429916 0.134720
-0.363246 -0.391580 0.336102
-0.403167 -0.374882 0.273975
-0.382552 -0.422546 0.128957
-0.370488 -0.376781 0.033808
-0.435347 -0.395617 0.277224
-0.420865 -0.445721 0.262455
-0.432403 -0.373443 0.280638
-0.378561 -0.373460 0.349869
-0.446593 -0.402215 0.313007
-0.432649 -0.354006 0.105272
-0.411897 -0.373979 0.329155
-0.441532 -0.352378 0.160451
-0.409952 -0.428965 0.000952
-0.385283 -0.428883 0.058567
-0.443381 -0.395548 0.206687
-0.407442 -0.409724 0.107883
-0.387152 -0.389497 0.267499
-0.390011 -0.356658 0.031079
-0.357863 -0.401638 0.298335
-0.381574 -0.391350 0.111949
-0.419430 -0.444607 0.021612
-0.447660 -0.404072 0.267989
-0.393243 -0.368204 0.207847
-0.353576 -0.448890 0.298374
-0.359138 -0.374359 0.141405
-0.361355 -0.387085 0.018526
-0.427348 -0.363367 0.308709
-0.426448 -0.441857 0.151667
-0.407448 -0.389199 0.262193
-0.433777 -0.368068 0.120095
-0.374135 -0.400142 0.147668
-0.357149 -0.412183 0.059519
-0.358917 -0.423192 0.015777
-0.383110 -0.398944 0.307825
-0.408046 -0.358622 0.288297
-0.373593 -0.359057 0.209583
-0.438270 -0.367399 0.052362
-0.370875 -0.410223 0.359478
-0.422988 -0.441978 0.217165
-0.418299 -0.359682 0.011223
-0.419050 -0.389471 0.398685
-0.353247 -0.393143 0.311410
-0.378772 -0.434635 0.351697
-0.399359 -0.377331 0.118827
-0.389981 -0.427011 0.247486
-0.411021 -0.432872 0.086773
-0.379609 -0.404206 0.150661
-0.357429 -0.437484 0.014620
-0.393141 -0.398698 0.154705
-0.378670 -0.423455 0.311855
-0.444568 -0.412350 0.182085
-0.385835 -0.389285 0.193085
-0.440578 -0.369861 0.105611
-0.446823 -0.389190 0.060251
-0.372990 -0.434837 0.025015
-0.356758 -0.418292 0.183778
-0.438668 -0.361334 0.124439
-0.386545 -0.447070 0.094209
-0.421099 -0.389938 0.068852
-0.409019 -0.387070 0.208210
-0.404856 -0.384581 0.080847
-0.389110 -0.411855 0.101469
-0.415116 -0.365520 0.209746
-0.370262 -0.352543 0.285480
-0.432393 -0.408518 0.371464
-0.441957 -0.387004 0.100690
-0.441600 -0.398598 0.067553
-0.362429 -0.429526 0.143116
-0.415582 -0.409396 0.288882
-0.355167 -0.351060 0.200561
-0.429339 -0.380170 0.081405
-0.374462 -0.362434 0.369596
-0.372631 -0.366911 0.045937
-0.409740 -0.362719 0.208607
-0.402728 -0.438134 0.036866
-0.354336 -0.360334 0.115430
-0.373668 -0.374185 0.343050
-0.383889 -0.396235 0.027886
-0.414207 -0.394063 0.247149
-0.421707 -0.389882 0.354869
-0.396789 -0.351857 0.019376
-0.390105 -0.430112 0.017680
-0.437597 -0.399342 0.367955
-0.445302 -0.381697 0.345925
-0.449413 -0.394610 0.126369
-0.445909 -0.400172 0.329227
-0.424995 -0.429115 0.248110
-0.397780 -0.409978 0.260957
-0.366130 -0.405883 0.180460
-0.421595 -0.395672 0.313595
-0.439642 -0.354510 0.183369
-0.374982 -0.398690 0.307975
-0.437118 -0.431083 0.116845
-0.394234 -0.407982 0.125316
-0.417880 -0.392151 0.218895
-0.390298 -0.439895 0.096287
-0.441916 -0.384541 0.134712
-0.365262 -0.369371 0.365768
-0.426875 -0.361937 0.386390
-0.379347 -0.361446 0.124638
-0.355941 -0.423687 0.007181
-0.425150 -0.393658 0.233854
-0.415119 -0.398425 0.154347
-0.445447 -0.409569 0.088441
-0.396793 -0.432570 0.348266
-0.385577 -0.446805 0.204881
-0.360835 -0.428471 0.228628
0.421926 -0.425360 0.252125
0.396610 -0.360959 0.347196
0.385533 -0.361150 0.135545
0.411772 -0.449530 0.141396
0.434036 -0.411752 0.326398
0.402512 -0.369590 0.279483
0.445364 -0.421552 0.010419
0.440276 -0.412235 0.346207
0.357450 -0.388315 0.057739
0.425790 -0.387903 0.361258
0.369445 -0.382821 0.273048
0.430643 -0.391510 0.272259
0.383054 -0.353724 0.234720
0.372042 -0.392782 0.112151
0.394342 -0.432461 0.156022
0.351021 -0.361525 0.079291
0.423814 -0.386873 0.133133
0.443106 -0.388870 0.085367
0.438236 -0.439562 0.203025
0.401228 -0.391557 0.260187
0.423983 -0.393773 0.194347
0.379730 -0.407835 0.044006
0.443049 -0.440241 0.019814
0.429864 -0.401409 0.070428
0.358947 -0.443755 0.177408
0.389879 -0.396154 0.058425
0.437561 -0.394247 0.021174
0.350634 -0.439174 0.085925
0.374346 -0.448834 0.049500
0.387783 -0.368208 0.150139
0.442775 -0.394834 0.384310
0.399309 -0.384493 0.155170
0.374851 -0.426429 0.045292
0.394087 -0.405596 0.022855
0.381206 -0.385209 0.120655
0.430575 -0.404166 0.055170
0.411566 -0.359262 0.199402
0.392806 -0.449135 0.218222
0.449021 -0.394505 0.330858
0.406060 -0.408324 0.033855
0.449430 -0.390636 0.364720
0.368012 -0.420962 0.278470
0.389688 -0.446238 0.225153
0.350180 -0.361814 0.341347
0.352304 -0.405226 0.350424
0.431330 -0.381202 0.197676
0.363740 -0.379016 0.396534
0.393376 -0.406452 0.282841
0.424642 -0.366989 0.301562
0.447532 -0.419226 0.225348
0.361078 -0.382956 0.311277
0.370917 -0.354334 0.149496
0.396424 -0.400236 0.032327
0.373549 -0.393847 0.328847
0.424758 -0.360923 0.087151
0.376891 -0.417275 0.068050
0.423015 -0.390584 0.332759
0.416332 -0.415975 0.171469
0.419724 -0.353302 0.172774
0.386327 -0.365612 0.179887
0.373611 -0.443693 0.279105
0.369652 -0.375045 0.001251
0.426102 -0.396863 0.261275
0.442629 -0.403787 0.087535
0.361935 -0.387054 0.327811
0.401785 -0.380541 0.318757
0.390338 -0.449586 0.082420
0.366630 -0.372828 0.066157
0.384454 -0.409558 0.390258
0.436223 -0.365796 0.172578
0.418042 -0.439717 0.046158
0.427522 -0.388308 0.039127
0.437978 -0.439759 0.064180
0.389754 -0.375113 0.330708
0.416452 -0.405186 0.153256
0.434336 -0.385033 0.104086
0.371904 -0.389626 0.391044
0.367119 -0.355672 0.054889
0.370699 -0.357036 0.288024
0.415433 -0.408524 0.014666
0.420586 -0.375304 0.235374
0.364332 -0.382105 0.245957
0.424020 -0.438269 0.280151
0.383723 -0.391451 0.143265
0.383964 -0.383254 0.322625
0.421812 -0.383179 0.299768
0.448523 -0.441238 0.351520
0.371424 -0.414242 0.328706
0.350196 -0.395935 0.257909
0.437458 -0.428744 0.253316
0.370188 -0.391307 0.035352
0.385342 -0.415648 0.120015
0.449683 -0.384954 0.158342
0.398606 -0.385793 0.186480
0.423655 -0.429713 0.009882
0.428127 -0.366734 0.110050
0.362350 -0.432879 0.357412
0.420419 -0.370558 0.005082
0.430361 -0.447914 0.325577
0.428440 -0.430343 0.010361
0.367680 -0.390401 0.377532
0.363638 -0.365097 0.198830
0.436908 -0.425942 0.100819
0.393290 -0.350683 0.097566
0.410888 -0.360130 0.218523
0.436861 -0.436605 0.230423
0.391105 -0.449741 0.226744
0.390569 -0.383523 0.278034
0.352492 -0.385284 0.358961
0.419413 -0.440217 0.364176
0.402853 -0.380448 0.144921
0.359127 -0.447739 0.141341
0.365338 -0.409923 0.008194
0.388295 -0.430883 0.067832
0.402568 -0.380653 0.350753
0.443404 -0.409751 0.374783
0.389174 -0.417938 0.070119
0.445813 -0.406370 0.257744
0.388777 -0.411839 0.133240
0.353126 -0.393945 0.181777
0.412723 -0.371498 0.204405
0.419270 -0.436295 0.386560
0.350218 -0.432377 0.107220
0.440354 -0.373814 0.189656
0.373280 -0.378558 0.289831
-0.421426 0.379223 0.105187
-0.362963 0.359525 0.202689
-0.355651 0.417158 0.315389
-0.372123 0.434465 0.218120
-0.402132 0.397552 0.084240
-0.408356 0.383358 0.286433
-0.369221 0.449079 0.353715
-0.373157 0.418388 0.154754
-0.414146 0.423025 0.267753
-0.356792 0.382572 0.121887
-0.353612 0.434312 0.250263
-0.444237 0.358610 0.328339
-0.382958 0.382469 0.039271
-0.364359 0.439900 0.350327
-0.410828 0.396463 0.209158
-0.353910 0.365479 0.143434
-0.388698 0.441248 0.239849
-0.422064 0.408151 0.319623
-0.400084 0.396431 0.344311
-0.351588 0.434166 0.226826
-0.371836 0.353609 0.359077
-0.355632 0.445463 0.075282
-0.372441 0.432282 0.222616
-0.350862 0.419642 0.342366
-0.444742 0.407063 0.330663
-0.437466 0.363408 0.372425
-0.435838 0.426684 0.059868
-0.449904 0.424782 0.132889
-0.375966 0.413872 0.052644
-0.444103 0.381520 0.072210
-0.353157 0.424040 0.137624
-0.389272 0.366461 0.393167
-0.425019 0.441615 0.048255
-0.430295 0.360991 0.135339
-0.415860 0.378421 0.351760
-0.447315 0.428790 0.250446
-0.446303 0.439108 0.040148
-0.352322 0.361398 0.188738
-0.404557 0.443667 0.144245
-0.368254 0.408495 0.050993
-0.372080 0.372653 0.346051
-0.366359 0.424690 0.385569
-0.434769 0.448779 0.019372
-0.359536 0.410029 0.306818
-0.397063 0.377509 0.069275
-0.387257 0.361626 0.324977
-0.351501 0.371119 0.121620
-0.366718 0.362251 0.354915
-0.395523 0.438547 0.370723
-0.379893 0.427077 0.086939
-0.410072 0.410497 0.073379
-0.399671 0.357500 0.358489
-0.395036 0.421128 0.280820
-0.370234 0.385637 0.010756
-0.359319 0.396264 0.350995
-0.407171 0.427630 0.055680
-0.372714 0.432953 0.084600
-0.350034 0.393610 0.193447
-0.415874 0.401661 0.148825
-0.444477 0.383772 0.033347
-0.422368 0.431199 0.385644
-0.431617 0.446739 0.235494
-0.437371 0.360393 0.386581
-0.361267 0.449252 0.098223
-0.360144 0.387609 0.232951
-0.377951 0.428662 0.139571
-0.416466 0.431422 0.248216
-0.389234 0.423975 0.170195
-0.359062 0.430721 0.153344
-0.442134 0.437341 0.147855
-0.397821 0.385518 0.159927
-0.383811 0.444457 0.085119
-0.390852 0.367822 0.122035
-0.441925 0.360918 0.238758
-0.386004 0.353454 0.322157
-0.356014 0.396841 0.240551
-0.391809 0.379603 0.173451
-0.433829 0.433968 0.189007
-0.396802 0.419756 0.278886
-0.404550 0.436545 0.288921
-0.446708 0.428893 0.157538
-0.444738 0.357022 0.045283
-0.444548 0.435007 0.250437
-0.365472 0.441748 0.195243
-0.380391 0.407641 0.000463
-0.437027 0.390119 0.090576
-0.440621 0.378162 0.178255
-0.420842 0.439811 0.023047
-0.367774 0.439119 0.207363
-0.408012 0.412372 0.117232
-0.364465 0.400043 0.070154
-0.356503 0.430060 0.143630
-0.406942 0.435248 0.379415
-0.354147 0.358303 0.240275
-0.356169 0.429418 0.297552
-0.440143 0.398287 0.353897
-0.411507 0.408748 0.059040
-0.436156 0.380197 0.285247
-0.446233 0.412588 0.030518
-0.388964 0.354722 0.227700
-0.428148 0.421778 0.296088
-0.392347 0.420815 0.141153
-0.405397 0.440917 0.378942
-0.369141 0.391032 0.225561
-0.400630 0.352516 0.379439
-0.355191 0.414846 0.036592
-0.418550 0.381066 0.220046
-0.423098 0.373277 0.356796
-0.350877 0.440295 0.127355
-0.368845 0.434766 0.076034
-0.354171 0.397575 0.337815
-0.357142 0.444390 0.074446
-0.444560 0.360796 0.232866
-0.351799 0.386504 0.020031
-0.363339 0.395456 0.311448
-0.385584 0.388968 0.266395
-0.371226 0.379470 0.193439
-0.396884 0.406994 0.180458
-0.357858 0.448082 0.270742
-0.381508 0.406559 0.188125
-0.417522 0.385188 0.378022
-0.351604 0.389072 0.191285
-0.402007 0.380660 0.216760
-0.408999 0.362357 0.186507
-0.399014 0.385002 0.040361
0.392696 0.441630 0.203810
0.384726 0.428654 0.226133
0.422489 0.409371 0.362860
0.351574 0.444681 0.169551
0.404453 0.403294 0.001373
0.380580 0.355878 0.252366
0.449372 0.398139 0.339416
0.391039 0.405853 0.296097
0.435397 0.350096 0.031534
0.384174 0.381712 0.397995
0.367723 0.368716 0.045610
0.449196 0.385538 0.394868
0.378147 0.403898 0.049035
0.416828 0.401218 0.246369
0.434469 0.380709 0.328641
0.406366 0.390948 0.329420
0.437236 0.388308 0.086295
0.370435 0.447186 0.228807
0.398786 0.390013 0.265377
0.421047 0.370072 0.038992
0.422792 0.395514 0.239240
0.403992 0.430594 0.056084
0.392501 0.433186 0.257703
0.363614 0.447548 0.311490
0.411179 0.419059 0.267369
0.431518 0.371731 0.196954
0.416766 0.397809 0.265104
0.403126 0.384994 0.109808
0.390604 0.354392 0.197942
0.447965 0.391065 0.357455
0.435418 0.387755 0.150214
0.433779 0.380379 0.013314
0.439844 0.377389 0.114832
0.371282 0.405077 0.213419
0.383789 0.368472 0.018850
0.404411 0.366811 0.084261
0.440916 0.399709 0.399400
0.377622 0.410552 0.179735
0.428110 0.376462 0.221677
0.418615 0.384222 0.328457
0.424920 0.364717 0.121836
0.417155 0.353538 0.342309
0.428147 0.436866 0.138922
0.424810 0.418065 0.087493
0.378604 0.411753 0.261560
0.361388 0.353057 0.382246
0.378792 0.378464 0.015580
0.446219 0.365572 0.089054
0.381632 0.425890 0.058155
0.434915 0.378857 0.055921
0.442651 0.442967 0.223609
0.430815 0.378072 0.287152
0.416904 0.350803 0.167333
0.391745 0.429824 0.042726
0.354974 0.439749 0.374129
0.402766 0.377130 0.365840
0.363872 0.359596 0.072578
0.369291 0.362703 0.217488
0.445627 0.416824 0.367138
0.392656 0.377711 0.371915
0.438485 0.409236 0.399318
0.421751 0.383243 0.305337
0.382696 0.389827 0.398142
0.362058 0.419685 0.374918
0.370082 0.434993 0.397294
0.423387 0.354190 0.031075
0.361350 0.407954 0.374562
0.398767 0.395761 0.178225
0.369230 0.408489 0.247074
0.385042 0.399528 0.314097
0.404655 0.404841 0.068584
0.398783 0.420728 0.146150
0.395358 0.425022 0.340056
0.436644 0.384359 0.252460
0.432804 0.399638 0.361715
0.367990 0.352129 0.294518
0.446777 0.446226 0.085467
0.427560 0.449119 0.053048
0.441316 0.379823 0.057765
0.438521 0.431842 0.365647
0.435445 0.372941 0.393701
0.445456 0.376539 0.128954
0.433620 0.378727 0.303117
0.413384 0.362126 0.101463
0.383633 0.395033 0.151266
0.350478 0.354135 0.322189
0.378282 0.364273 0.011715
0.374682 0.421178 0.351965
0.428044 0.355844 0.146022
0.438140 0.431710 0.332898
0.431732 0.398269 0.320845
0.446134 0.380256 0.209104
0.393417 0.393180 0.033855
0.424270 0.401794 0.068415
0.421702 0.367518 0.272132
0.449881 0.428166 0.161807
0.375516 0.432468 0.051350
0.376897 0.418095 0.159401
0.399294 0.400000 0.214307
0.445100 0.401896 0.170046
0.384646 0.370572 0.200103
0.393993 0.395203 0.346268
0.368312 0.392065 0.075112
0.420962 0.390074 0.239218
0.422331 0.403548 0.139927
0.367549 0.377491 0.157483
0.350373 0.379240 0.077130
0.406961 0.362834 0.294587
0.381406 0.442692 0.035795
0.407932 0.401606 0.172668
0.369589 0.352854 0.206851
0.392374 0.359590 0.229387
0.435852 0.411488 0.008022
0.424793 0.439364 0.226503
0.374245 0.394526 0.180281
0.375211 0.384212 0.055364
0.445955 0.373659 0.103094
0.432696 0.377279 0.226918
0.449908 0.407876 0.382596
0.412784 0.417450 0.323699
0.438593 0.385609 0.166324
0.413429 0.350688 0.327742
0.355299 0.373212 0.244223
0.439764 0.395861 0.219580
