ply
format ascii 1.0
element vertex 1500
property float x
property float y
property float z
end_header
-0.402736 -0.467475 0.405679
0.015939 -0.405297 0.418052
0.002854 -0.357545 0.407172
0.309763 -0.042435 0.469402
-0.267817 -0.314734 0.401153
-0.382002 0.102737 0.406465
-0.089616 0.153304 0.440821
0.022376 0.263347 0.495259
0.001009 0.292233 0.444046
-0.092002 0.057424 0.448921
-0.126545 -0.244134 0.493185
-0.316524 -0.392049 0.486951
-0.455241 -0.040065 0.445321
-0.335904 -0.275755 0.435138
0.313738 -0.206093 0.411933
-0.251430 -0.473792 0.443448
-0.327883 -0.043650 0.488907
-0.279755 -0.390726 0.476522
0.415010 -0.014514 0.458518
0.017938 0.095394 0.489497
-0.409490 0.166308 0.415810
-0.405969 -0.416057 0.471038
-0.216181 0.113789 0.480248
-0.040141 0.151869 0.490799
0.466747 0.129365 0.410045
-0.433821 0.157238 0.464060
-0.451827 -0.064064 0.469391
0.205579 -0.272805 0.459060
-0.384845 0.191040 0.494403
0.492278 0.409105 0.476633
-0.394099 -0.319263 0.447032
0.335194 0.049058 0.455911
-0.019330 -0.044837 0.455326
0.092052 -0.445005 0.444202
0.383453 0.183622 0.439835
-0.355700 0.156663 0.431078
0.072829 0.464247 0.471065
0.480582 0.443060 0.476490
0.407012 0.174668 0.499513
0.178331 0.322978 0.436799
0.365668 -0.001745 0.416133
-0.056498 0.134183 0.490082
-0.014403 0.311802 0.406495
-0.151901 -0.454953 0.401165
0.413423 0.019185 0.495139
0.228360 0.252006 0.465024
-0.377759 -0.239664 0.478254
0.290403 -0.006962 0.405925
-0.234580 0.108145 0.474208
-0.275182 0.333745 0.486038
-0.288790 -0.481563 0.411258
0.039238 0.046223 0.443139
-0.023118 0.469957 0.449082
0.088246 0.254653 0.450472
0.209572 0.029563 0.465031
-0.089578 0.160491 0.442504
0.466584 0.441352 0.414621
-0.143867 -0.246405 0.482352
-0.387870 0.372591 0.464476
0.159612 -0.306766 0.412194
0.291745 0.444955 0.478380
-0.430815 0.015404 0.478276
-0.100629 0.115528 0.428419
0.279099 0.364579 0.404141
-0.269465 -0.389733 0.469896
0.297411 -0.349560 0.460957
0.192440 0.298633 0.475392
-0.262136 0.140668 0.448687
-0.450271 -0.118397 0.497886
-0.295044 0.397855 0.427321
0.120252 -0.102550 0.429526
-0.069267 -0.185008 0.494391
0.136730 0.116294 0.422765
0.277460 0.247656 0.411249
-0.034902 0.100415 0.430311
0.483907 -0.304549 0.494899
-0.283228 -0.064881 0.421361
0.218200 -0.375268 0.425733
0.117229 0.442748 0.475256
0.392078 -0.431564 0.410548
0.179512 0.141659 0.454456
0.406690 -0.289068 0.417216
0.135991 0.227620 0.465683
0.497512 0.089554 0.472286
0.153678 -0.155557 0.455027
0.355956 0.195980 0.436028
0.048855 0.351206 0.488242
0.335411 0.473709 0.466199
0.207427 0.375778 0.419872
-0.390562 0.179962 0.464082
-0.294980 -0.332551 0.460836
-0.200593 -0.140431 0.493548
-0.386982 0.380554 0.463226
0.088257 0.435813 0.468739
-0.054444 -0.049105 0.439006
0.239756 0.279206 0.495499
-0.189131 0.347734 0.430278
0.361978 0.154313 0.458125
-0.281803 -0.195280 0.436359
0.219493 -0.432287 0.497021
-0.391936 -0.390533 0.432179
-0.343284 -0.017041 0.428676
0.474999 -0.194237 0.484391
0.177029 -0.323138 0.495038
0.296297 0.370691 0.491531
0.369997 0.242457 0.422047
0.420794 0.031564 0.463017
-0.323256 -0.481578 0.404306
0.303528 0.415709 0.450703
-0.023680 0.314084 0.420986
0.263402 -0.216041 0.455641
0.144376 -0.201660 0.431608
0.294760 -0.450899 0.485434
-0.165459 -0.270255 0.444230
-0.193294 -0.058532 0.413795
0.043355 -0.140935 0.468576
-0.346133 -0.438658 0.476240
-0.098780 -0.149797 0.467550
-0.133730 0.362893 0.475168
-0.342060 -0.474866 0.423734
-0.333895 -0.077265 0.462421
0.380649 0.452428 0.407432
-0.186694 -0.320380 0.462086
-0.046859 -0.372281 0.454640
0.380060 -0.276422 0.455631
0.154606 -0.400641 0.457325
-0.116301 0.349021 0.464307
0.470284 -0.415895 0.483738
0.195035 -0.071097 0.461607
0.061416 -0.363250 0.444046
0.247250 -0.030772 0.405162
0.229753 -0.206991 0.462511
-0.476194 0.234132 0.430092
-0.335266 0.132420 0.404228
0.025662 -0.032990 0.466943
0.465891 0.410058 0.465103
0.392069 0.047656 0.493353
0.100633 -0.178057 0.440225
0.112059 -0.068013 0.432079
0.180449 -0.408443 0.419218
0.079168 0.173925 0.443591
0.328528 -0.201357 0.423634
0.006418 0.494638 0.413777
0.343678 -0.228277 0.444974
-0.315906 -0.045845 0.452728
-0.087614 -0.342861 0.400652
-0.283547 0.483412 0.416870
0.481834 -0.331296 0.462024
-0.336215 -0.319292 0.454267
-0.376975 -0.450257 0.452678
0.155262 0.323065 0.433614
-0.062268 -0.056281 0.420713
-0.298199 0.102155 0.420837
0.336788 -0.379412 0.449221
-0.104334 0.475291 0.454872
0.269362 -0.234912 0.491970
-0.253840 0.488823 0.484367
0.240173 -0.422149 0.451110
-0.044191 -0.161047 0.425589
0.439049 -0.310229 0.428216
-0.310313 -0.396471 0.451103
-0.265645 -0.439979 0.458495
-0.489086 -0.079164 0.437222
-0.184784 0.103470 0.442298
-0.303776 -0.229993 0.416061
0.234627 -0.336740 0.458606
0.279828 -0.100585 0.464976
-0.334552 0.346106 0.455055
0.417260 0.034003 0.436618
-0.261603 -0.243136 0.427773
-0.166997 -0.131259 0.469001
0.321697 -0.451828 0.412922
0.028116 0.365870 0.435890
0.416342 0.077265 0.489303
-0.059940 -0.302005 0.446930
-0.276090 0.420364 0.497424
-0.220395 0.499504 0.496431
0.196845 0.277670 0.404389
0.228968 0.237391 0.429841
0.464892 0.317915 0.417008
-0.433527 -0.110339 0.433003
-0.059615 -0.403542 0.488345
0.107820 0.353242 0.412125
-0.044844 -0.198061 0.428589
0.161721 -0.347601 0.493947
0.014641 0.263579 0.482866
-0.195045 -0.243267 0.412925
-0.227937 -0.289284 0.409607
-0.091761 0.475483 0.403217
0.048384 -0.200218 0.444867
-0.301313 0.133279 0.449899
0.417808 0.469866 0.475575
0.186842 -0.060193 0.469005
0.221565 0.170808 0.435948
0.313173 0.143371 0.415056
-0.264543 0.228495 0.416098
-0.031769 0.338889 0.496299
-0.073082 -0.151553 0.423348
-0.249512 0.481151 0.483589
-0.312173 0.487631 0.496343
-0.232348 0.208614 0.443798
-0.021350 0.019555 0.442116
0.374756 0.049579 0.480680
-0.375853 0.207823 0.422413
-0.424565 -0.066121 0.422243
0.031412 0.404826 0.473292
0.360561 0.494072 0.442581
0.258605 -0.051722 0.461876
0.445388 -0.423014 0.434114
-0.050241 -0.376463 0.405978
-0.280237 0.100403 0.441890
-0.356956 0.343670 0.462999
0.338330 -0.396658 0.421658
0.360745 -0.206935 0.406080
-0.355056 0.294334 0.493632
-0.348702 0.442415 0.487754
-0.276675 -0.197648 0.487393
0.216542 -0.164973 0.403604
-0.414757 0.095940 0.447299
-0.085490 -0.313567 0.444850
-0.142387 -0.309020 0.465676
-0.222400 0.477793 0.468095
-0.117224 -0.153702 0.494705
0.389758 -0.442876 0.492265
0.077319 -0.249480 0.454112
0.244069 -0.011619 0.450607
-0.029332 0.273991 0.418747
-0.073679 0.251338 0.433707
0.006016 0.196867 0.491574
-0.036524 0.177618 0.482054
-0.361048 0.069060 0.458798
-0.058549 -0.365477 0.400448
-0.261960 -0.409765 0.491491
-0.060692 0.312366 0.407982
-0.377892 0.021960 0.476107
-0.134369 -0.332527 0.418962
0.147700 0.293821 0.489300
-0.083964 -0.311656 0.446965
0.436687 0.135005 0.496757
0.264835 0.463185 0.462400
-0.043429 -0.224543 0.479175
0.430268 0.349249 0.494284
0.003778 0.365510 0.424467
0.206542 0.319533 0.483716
0.196729 -0.036825 0.433351
0.080364 0.053823 0.486015
-0.408668 -0.404141 0.439074
-0.177721 0.450454 0.423199
0.372964 0.307952 0.421983
-0.389592 0.436878 0.446571
0.443904 0.324504 0.406366
0.216873 -0.303812 0.481807
-0.034504 -0.411586 0.486688
-0.279272 -0.424888 0.499356
-0.003822 -0.195223 0.425739
-0.285656 0.107157 0.436125
0.197482 0.433452 0.405067
-0.380036 -0.182980 0.410362
-0.322580 0.391015 0.408693
-0.270482 0.340318 0.490904
0.393535 -0.303723 0.492192
-0.076531 0.340448 0.471990
-0.025840 -0.264885 0.462728
-0.131450 -0.349683 0.400253
-0.034387 0.205561 0.472924
0.008388 -0.373247 0.451458
0.187943 0.316861 0.435223
-0.372548 -0.470734 0.415964
-0.420330 -0.109135 0.453078
-0.326319 0.058279 0.448895
-0.405543 0.260835 0.451898
0.132960 0.440152 0.431900
0.447340 0.091221 0.418562
0.067676 -0.087775 0.411752
0.181776 -0.108465 0.436223
0.062849 0.343674 0.463346
-0.128389 0.249001 0.413281
0.099276 -0.008469 0.404610
0.218157 0.365416 0.448387
-0.009665 0.186990 0.433183
0.309410 -0.329911 0.407461
0.030101 0.422111 0.479668
-0.189171 -0.256830 0.428851
-0.488325 -0.426230 0.422413
0.146230 0.483220 0.460695
0.463247 0.046087 0.490513
-0.295413 0.139381 0.448560
-0.290646 -0.430124 0.420581
0.042569 -0.050937 0.452677
-0.022500 -0.433142 0.436803
0.345389 -0.002765 0.427072
0.256978 -0.344289 0.493533
-0.459370 0.063989 0.478687
-0.013113 0.298216 0.426057
-0.184294 0.265893 0.427799
0.394303 0.200905 0.403642
0.219765 0.082158 0.498994
0.360536 -0.265998 0.477998
-0.437366 -0.100703 0.478038
0.414466 -0.475757 0.468699
-0.487985 0.405304 0.495581
-0.160472 0.220845 0.432164
-0.339748 0.168539 0.490237
-0.021922 -0.156358 0.416497
0.138800 0.137185 0.416453
-0.383745 0.135915 0.414964
-0.060420 0.462928 0.469968
0.203432 0.116915 0.477989
-0.469319 0.276903 0.491795
0.318232 0.446805 0.425597
-0.289134 0.133182 0.412223
0.062167 0.124089 0.499353
0.149143 -0.370513 0.478821
-0.136861 -0.428879 0.452491
0.126672 -0.148156 0.427733
-0.302277 0.113529 0.483910
-0.398209 0.306417 0.489663
-0.197024 0.153323 0.421760
-0.475051 -0.105070 0.414073
-0.211043 0.365148 0.440676
0.111915 -0.323767 0.465524
0.154816 -0.069806 0.475752
-0.462114 -0.158342 0.499545
0.003346 -0.254941 0.423994
-0.053221 -0.261082 0.495712
0.189500 -0.214865 0.409416
-0.307138 0.426537 0.497274
-0.373259 0.080377 0.404207
0.086397 -0.304419 0.406940
-0.271712 0.188557 0.408288
0.314614 -0.260482 0.446585
-0.477437 -0.127456 0.473647
0.344859 -0.077210 0.447671
-0.426600 0.364455 0.452066
0.062946 -0.038207 0.422460
0.060786 -0.432385 0.408257
0.437667 0.236972 0.417044
0.172555 -0.001124 0.431658
0.237485 -0.098147 0.417780
-0.118896 -0.246250 0.469918
0.365517 0.096222 0.417250
0.123779 0.034864 0.444803
-0.495448 0.055982 0.495093
-0.266242 -0.145426 0.402859
-0.368912 0.254234 0.405498
0.248718 -0.129435 0.430963
0.431217 0.140527 0.401737
-0.009778 -0.188781 0.481316
0.441601 -0.193408 0.405812
0.367284 -0.372763 0.412691
-0.163500 -0.201465 0.425828
-0.320262 0.444248 0.480640
0.407301 0.445475 0.400831
-0.453871 -0.455891 0.427691
-0.418714 0.182207 0.460595
0.298894 0.256176 0.473452
0.382067 -0.055313 0.465124
0.106614 0.192601 0.480248
0.333806 0.493081 0.480409
-0.427965 -0.350531 0.484786
-0.336493 -0.254096 0.410132
-0.497085 0.167382 0.414521
-0.082890 -0.410456 0.428056
-0.272609 -0.086198 0.462392
0.225958 0.034330 0.490332
0.055884 -0.174282 0.465658
0.338136 -0.132947 0.437869
0.492016 -0.373381 0.403790
0.223506 -0.344553 0.438688
-0.377067 -0.384073 0.420534
0.265719 0.352465 0.410218
-0.154455 0.391851 0.465800
-0.193490 0.226449 0.405493
-0.211994 0.034500 0.476810
0.334514 0.391965 0.443974
-0.361056 -0.384868 0.405935
0.333077 0.013294 0.432941
0.104534 -0.058612 0.480049
0.392022 0.015034 0.493524
-0.389507 -0.003417 0.481254
-0.195181 0.169913 0.409098
-0.380415 -0.012969 0.486936
-0.214235 -0.074896 0.462913
0.099374 -0.089820 0.495980
-0.419074 -0.087370 0.428788
0.076769 -0.294310 0.465100
0.446011 0.318282 0.484230
-0.210353 0.483070 0.412798
-0.490814 -0.271364 0.491574
0.265075 0.328936 0.479031
-0.236237 -0.414089 0.403269
0.343492 0.228350 0.479228
-0.019840 0.455970 0.492241
0.084127 -0.315759 0.471950
0.172552 0.246280 0.472883
0.152204 -0.135109 0.488096
0.390007 0.192743 0.459742
0.331971 -0.256272 0.409120
-0.164020 0.255856 0.438500
-0.326554 -0.436193 0.450136
-0.359846 -0.320631 0.472029
0.031456 -0.387924 0.459481
0.438923 -0.276105 0.486314
0.388195 0.006411 0.414221
0.462649 -0.414713 0.413648
-0.020998 -0.062607 0.488624
-0.279241 -0.377587 0.444271
0.402648 0.102533 0.406218
0.403179 0.450330 0.422317
0.163300 0.165218 0.474323
0.039218 -0.341370 0.416376
0.060585 0.302485 0.453759
-0.310894 0.268282 0.401903
0.379380 -0.342763 0.431333
0.160612 0.233689 0.401356
-0.397540 -0.435723 0.446607
-0.016493 -0.024862 0.429209
0.065385 -0.016995 0.427922
0.177980 0.419279 0.410912
0.437958 -0.459081 0.499830
0.200116 0.176942 0.487593
-0.365008 0.142887 0.472734
-0.497247 -0.062492 0.430089
-0.461432 -0.435098 0.404266
0.437360 0.173944 0.459759
0.336349 -0.067841 0.414456
-0.434105 -0.313150 0.476238
-0.487578 -0.043946 0.435863
0.175427 0.357049 0.416461
0.364708 -0.360547 0.472364
-0.344884 -0.229202 0.483107
0.006788 -0.342985 0.464378
0.243407 -0.379791 0.427896
-0.074691 -0.234939 0.410980
0.051609 -0.058695 0.407338
-0.311887 -0.394354 0.460887
0.227777 -0.470043 0.420319
-0.139485 0.206639 0.477123
0.129082 0.288320 0.484365
0.441151 -0.094038 0.473651
-0.435207 -0.313968 0.413681
-0.030962 0.415291 0.466557
0.365685 0.002433 0.443678
-0.299835 0.473732 0.481160
-0.027373 0.207350 0.437877
-0.363264 -0.187672 0.401168
0.374124 -0.246873 0.422054
-0.359216 -0.250085 0.455816
0.176560 0.475093 0.485853
-0.189202 0.313853 0.452981
0.102116 -0.415817 0.492951
-0.368939 0.195374 0.478113
-0.017423 -0.288679 0.483233
-0.143909 -0.262459 0.462359
0.495308 -0.256952 0.441080
0.126977 0.499155 0.495501
-0.266197 0.046504 0.479831
0.499827 0.284435 0.428551
-0.091336 0.393188 0.432453
-0.372359 0.018009 0.410921
-0.468261 0.332719 0.455574
0.200761 -0.065854 0.432069
-0.497700 0.323372 0.457628
0.378190 -0.157067 0.472355
0.093357 -0.249243 0.487369
-0.306880 0.329662 0.443776
0.260496 0.151893 0.464157
-0.055118 -0.223834 0.436620
-0.165336 0.111666 0.496996
0.315719 0.315877 0.440549
-0.160586 -0.010247 0.481683
0.288946 0.365088 0.476663
0.031994 -0.457296 0.463080
0.039046 0.456309 0.425915
0.412615 0.474116 0.411159
-0.480144 -0.240484 0.403606
0.015228 0.054312 0.471013
0.482311 0.020634 0.410069
-0.036385 0.353347 0.494475
0.152257 0.132060 0.440768
0.332350 -0.126961 0.460735
0.392990 0.176183 0.445368
0.268520 0.287687 0.461483
-0.371983 0.124849 0.465124
-0.146446 -0.379625 0.428376
-0.381011 -0.272754 0.470670
-0.423748 -0.414929 0.492373
-0.290471 -0.244025 0.415965
0.125310 -0.489366 0.491327
-0.494957 0.088240 0.495038
-0.338311 -0.370264 0.468645
0.369647 0.200691 0.405857
0.208129 -0.331809 0.408518
-0.488408 0.046274 0.426306
-0.455413 0.376217 0.495087
0.035554 0.263428 0.480638
-0.002025 -0.467248 0.460211
-0.124617 0.220611 0.434396
0.071664 0.346354 0.401535
0.076735 -0.471054 0.481149
0.101139 0.408173 0.971552
-0.197741 0.478410 0.549739
-0.465483 0.470380 1.021069
-0.042751 0.484075 0.559882
-0.323616 0.497395 0.688030
-0.364589 0.490988 0.599375
-0.259517 0.482487 1.118702
-0.368583 0.468276 0.557308
0.161102 0.412316 0.721090
-0.181926 0.435350 0.946353
-0.145690 0.454164 0.869731
0.092646 0.429950 0.754974
-0.144483 0.433292 0.909683
0.318718 0.457696 1.013844
0.263906 0.470562 1.052008
0.331767 0.481012 0.751995
0.138327 0.419415 0.696285
-0.339348 0.462929 0.581403
-0.458037 0.478847 0.659414
-0.125307 0.455406 0.517301
0.309337 0.487270 1.003301
0.107740 0.447856 0.536853
0.156667 0.445870 0.665500
0.364145 0.496941 0.948241
-0.443901 0.472352 0.709041
0.458091 0.470009 1.053485
0.320738 0.455436 0.640615
0.169347 0.462254 1.135559
0.484149 0.471241 0.983722
0.028006 0.421288 0.723515
-0.159466 0.494846 0.632349
-0.173675 0.473474 1.135452
0.006512 0.458142 1.137514
0.111742 0.400346 0.540676
-0.204871 0.495378 0.751568
-0.481680 0.456858 0.622167
0.003727 0.465119 0.742801
0.138826 0.406201 0.721349
-0.445765 0.455048 0.676362
-0.116956 0.416076 0.702966
-0.443498 0.499890 0.544408
-0.487256 0.407208 1.010885
-0.415759 0.443688 0.564713
0.469341 0.449989 0.664073
0.148428 0.452208 1.042258
0.154027 0.414753 0.828108
0.139854 0.442821 0.783935
-0.060342 0.466710 0.583326
0.119260 0.401388 0.949254
0.083924 0.446250 0.653102
-0.022496 0.460904 0.984701
0.119945 0.427947 1.025526
0.408230 0.409286 0.814012
0.202727 0.468614 0.849134
-0.478524 0.453816 1.181442
0.243579 0.443114 1.002506
0.128478 0.449781 0.911482
-0.426501 0.417837 0.681696
-0.388039 0.466513 0.990324
-0.070069 0.418432 0.630059
0.268004 0.412129 0.652496
-0.009123 0.404370 0.695626
-0.234522 0.422409 0.807048
-0.455632 0.487321 0.753903
0.214453 0.456941 0.687803
0.000499 0.490965 0.786825
-0.278928 0.411795 0.687915
0.238301 0.449790 1.161925
-0.385770 0.490761 1.178566
0.438923 0.434449 0.600939
-0.045341 0.436307 1.158281
0.247320 0.478868 0.654971
-0.136546 0.403086 0.688258
-0.286986 0.416041 0.842565
0.069187 0.401117 0.525047
0.116939 0.427558 0.680636
-0.080976 0.423195 0.628958
-0.267646 0.405701 1.100520
0.428133 0.479796 0.858606
0.429474 0.400615 0.900840
0.007298 0.438684 0.624993
-0.336871 0.498246 0.932684
0.196187 0.464790 0.957314
0.060198 0.475270 1.115739
0.131331 0.458919 1.009524
-0.492230 0.466944 0.575556
-0.315338 0.477897 0.710705
0.006575 0.411715 0.948378
-0.315956 0.439979 0.888007
-0.074268 0.410456 1.185176
0.200930 0.467562 0.636774
-0.443858 0.418392 0.577828
0.198968 0.479931 0.799131
-0.304965 0.452416 0.907286
0.030288 0.461201 0.973124
0.120169 0.403201 0.641608
-0.138714 0.477880 0.833880
-0.059243 0.411962 0.647069
-0.303161 0.423743 0.868282
-0.011361 0.462604 1.168532
-0.197559 0.478010 0.546645
-0.161882 0.459613 0.909859
-0.141166 0.455722 0.927304
0.455799 0.402004 0.529512
-0.390053 0.431746 1.057021
0.004562 0.446374 1.047066
0.287099 0.493232 1.050782
-0.249977 0.459525 0.839096
0.187439 0.429588 0.851736
0.301167 0.416411 0.845523
0.333387 0.482565 1.171793
-0.287066 0.478303 0.622916
0.016506 0.435151 0.897843
0.105872 0.420420 0.950933
0.491393 0.463788 1.048063
0.133555 0.480851 0.572214
-0.133158 0.475791 0.628673
-0.425203 0.456735 0.871041
-0.401698 0.416232 0.572817
0.016605 0.425471 0.587936
0.046874 0.413188 0.832042
-0.320100 0.425975 0.700338
0.439718 0.495438 0.759015
0.178332 0.480386 0.701948
-0.301979 0.419652 0.701681
-0.025866 0.498734 0.956911
-0.383309 0.406031 1.121229
0.245010 0.452999 0.568945
-0.113847 0.455124 0.939807
-0.020038 0.448275 1.135874
-0.067450 0.471734 0.677852
0.146721 0.494351 0.808181
0.212240 0.483872 1.193541
-0.320486 0.493199 1.198425
-0.115014 0.424912 0.883321
-0.052702 0.406045 0.604415
-0.011643 0.418829 0.817049
0.075119 0.490737 0.547887
0.136958 0.471256 0.630800
0.284175 0.436488 1.196985
0.362250 0.465905 0.719966
-0.009879 0.424480 0.958794
0.449094 0.402907 0.727387
0.428478 0.405470 0.502706
0.242523 0.453209 0.545314
0.153272 0.456031 0.736426
0.243160 0.473936 1.017491
-0.235743 0.467332 0.992857
-0.235850 0.445328 0.800847
0.295426 0.459286 0.666893
-0.110988 0.410523 0.596085
-0.300459 0.407782 0.517943
-0.059898 0.452943 0.615341
-0.332193 0.412711 0.769375
0.441261 0.423111 1.120662
-0.398962 0.451256 1.051311
-0.378399 0.464915 0.745170
0.043507 0.496850 1.129449
-0.405625 0.430456 1.076724
-0.290874 0.464960 0.572417
-0.276417 0.476628 0.878166
0.249990 0.486203 0.571683
0.389998 0.447986 0.579464
-0.485352 0.448572 0.860167
-0.174535 0.490556 0.888345
-0.499246 0.455408 1.135643
0.329068 0.403100 0.710636
0.279052 0.476681 0.670051
0.381523 0.485812 0.861946
-0.282360 0.444804 0.803389
0.432322 0.406569 0.778341
-0.241548 0.475956 0.905182
-0.019480 0.435882 0.789816
0.316108 0.442240 1.157038
0.187723 0.477683 1.167080
-0.237554 0.421620 0.684906
-0.415173 0.464975 0.996716
0.145746 0.464144 0.906545
0.206698 0.469122 1.008523
-0.409477 0.491865 0.544611
-0.472522 0.482747 0.969886
0.108853 0.421165 0.628606
-0.403522 0.468018 1.018001
-0.336237 0.498439 1.026399
0.454710 0.439395 1.136845
0.309789 0.439523 0.742625
-0.472381 0.404448 0.726482
-0.218884 0.444624 0.642815
-0.039418 0.492678 0.572885
0.146419 0.494219 0.608546
-0.057587 0.440181 0.875505
-0.435006 0.479030 1.178838
-0.120868 0.476358 0.624629
-0.226924 0.472292 0.821605
-0.382153 0.498612 0.864347
0.004241 0.453730 0.516348
0.428556 0.437941 0.818495
0.141556 0.400024 1.182858
0.214521 0.417154 1.000251
-0.319487 0.499009 1.070834
0.075021 0.428102 1.013431
-0.271738 0.437166 0.900029
0.162181 0.436744 0.561588
0.010984 0.440045 1.039155
0.155958 0.437872 0.544402
0.478138 0.472768 0.957375
0.296713 0.425346 1.169374
-0.051555 0.425195 0.808973
-0.389115 0.494205 0.563390
-0.029406 0.460079 0.701499
-0.191553 0.490434 0.540814
0.452340 0.497735 1.199210
-0.084670 0.485843 1.008799
-0.099427 0.422330 1.033074
-0.394224 0.490779 1.062419
0.273981 0.434224 1.097857
0.158469 0.433717 0.504831
0.000457 0.452670 0.988978
-0.165577 0.443109 0.542219
0.185628 0.462578 0.515782
0.205231 0.428820 0.501584
-0.295353 0.487336 0.734968
0.371895 0.402143 0.862017
-0.483343 0.489841 0.957426
0.276703 0.492991 1.057371
0.335696 0.446996 0.700983
0.250118 0.496284 0.876048
-0.176609 0.498827 0.965511
0.171817 0.401872 0.742997
0.176946 0.471781 1.030538
0.236211 0.488733 1.154063
0.390707 0.496169 0.731024
-0.118187 0.455298 0.634373
0.149873 0.440890 0.532196
0.119020 0.483736 0.654300
0.099898 0.461879 0.923868
-0.257798 0.408947 0.747765
-0.486112 0.450012 0.995557
0.396460 0.423181 0.651372
0.181394 0.486853 1.087193
0.237926 0.462287 1.171180
-0.308919 0.412612 0.737512
0.164248 0.450366 0.830741
-0.430460 0.464549 1.144136
0.483322 0.435841 0.961753
0.155085 0.413683 0.797744
0.293591 0.432245 1.155039
-0.407222 0.400010 0.750895
-0.446087 0.420285 0.903788
0.072186 0.421476 0.842369
-0.498510 0.431714 0.660335
0.497379 0.432620 0.670475
0.448082 0.412950 0.922590
0.332041 0.420017 1.049636
-0.435812 0.454994 1.042757
-0.028323 0.415213 0.668450
0.302911 0.450178 1.179356
0.421387 0.496246 0.902188
-0.035687 0.458482 0.779574
0.093573 0.464411 0.675962
0.162124 0.425311 1.199978
0.451602 0.456929 1.158301
-0.326971 0.433943 0.897991
0.465036 0.411133 0.521178
0.115979 0.416172 0.901575
0.492518 0.446383 0.847793
-0.128497 0.481122 0.899095
0.156105 0.471408 1.040824
-0.221847 0.404267 1.136460
-0.205645 0.483003 0.663854
0.224176 0.452397 1.089585
0.388500 0.458203 0.575297
0.024128 0.409963 0.810686
0.148234 0.423067 0.726461
0.320559 0.469657 1.146751
-0.389427 0.400632 1.065359
0.114254 0.419884 1.078138
0.338295 0.434920 0.505143
0.172750 0.441264 1.119912
-0.472617 0.462372 1.166886
-0.172428 0.417061 1.023863
-0.469129 0.437541 0.997101
0.338509 0.440154 0.652902
0.408237 0.498255 0.669411
-0.067334 0.460318 0.625474
0.299835 0.400513 0.859902
0.099415 0.450372 0.520837
0.175739 0.497064 0.792077
-0.197956 0.434541 1.103748
-0.339468 0.492971 1.024788
-0.454203 0.489120 0.835838
-0.217147 0.462862 0.581022
0.043994 0.489793 1.132158
0.009519 0.434076 0.797592
0.214412 0.480251 0.867721
0.093773 0.496629 0.520769
-0.363233 0.433633 0.567068
0.163905 0.460598 0.940524
0.404977 0.425387 1.015318
-0.462041 0.498432 0.833846
-0.309269 0.403295 0.572324
-0.284676 0.460958 0.638597
0.344765 0.424653 0.560579
0.433915 0.464008 0.827923
-0.227438 0.429808 0.540635
-0.049137 0.458623 1.107784
-0.020906 0.446830 0.737527
-0.427581 0.474112 1.007371
0.049355 0.427198 0.590536
-0.125825 0.407791 1.128051
0.211824 0.488648 0.572827
-0.409907 0.480148 0.610082
-0.043765 0.401034 0.993909
0.157848 0.423209 1.184042
0.148415 0.405816 0.723108
0.129908 0.489526 0.606752
0.283044 0.483033 1.048472
-0.289771 0.409455 1.044107
-0.475146 0.476611 0.854634
-0.087695 0.454215 0.691194
0.303929 0.468003 0.878034
-0.232481 0.499455 1.198189
0.305226 0.481784 0.604813
0.146644 0.492016 0.542740
-0.322960 0.444724 1.193169
-0.268448 0.438726 0.978790
-0.040414 0.409915 0.593782
0.049720 0.433093 1.094109
-0.178717 0.478544 0.997942
-0.163230 0.473410 0.763072
-0.493923 0.433084 0.887965
0.024315 0.459517 1.048511
0.193974 0.413549 0.590278
0.248180 0.461905 0.780940
0.111853 0.423912 0.557904
-0.484646 0.497433 0.746400
-0.374391 0.473097 1.158432
0.062571 0.402461 0.511375
-0.025678 0.463741 0.767459
-0.322674 0.470560 0.819566
0.418608 0.449887 0.611091
-0.219613 0.465259 0.533315
-0.267638 0.452538 0.556122
-0.001485 0.473993 0.601203
-0.030910 0.472845 1.155768
0.104843 0.432311 0.637147
0.192778 0.447730 1.133223
0.058321 0.491833 0.685303
-0.058524 0.463170 1.165175
0.075292 0.436794 0.585094
0.185264 0.412311 0.687033
-0.293503 0.454221 0.627958
-0.477467 0.419408 0.543821
-0.101274 0.458274 1.091369
0.310967 0.478040 0.816866
-0.123422 0.490626 1.026655
-0.338501 0.469361 1.069891
-0.241794 0.474623 0.673658
0.288509 0.412872 1.182148
0.197547 0.471342 1.068741
0.280106 0.468547 0.710751
-0.155633 0.406761 1.043435
-0.017226 0.475977 1.101128
0.419879 0.443858 0.851848
-0.217819 0.476886 0.515884
0.089392 0.458995 0.697790
0.446302 0.418731 0.846129
-0.270444 0.457648 0.626988
-0.056789 0.468480 0.763525
0.116251 0.403689 0.873029
-0.378233 0.414057 0.541846
-0.108703 0.494223 0.656717
-0.206544 0.409676 0.947115
0.189370 0.499071 0.928799
0.216754 0.408845 0.611742
0.069467 0.400761 1.022813
0.423555 0.470330 0.667731
-0.147207 0.448263 0.805452
-0.143577 0.450826 1.032000
-0.035860 0.453450 1.139167
-0.388563 0.401738 1.144259
0.300250 0.473730 0.963473
-0.336018 0.446587 0.545507
0.151783 0.414391 1.130533
-0.368312 0.403051 0.928244
0.227896 0.438201 1.168639
-0.302626 0.435829 0.664492
-0.174704 0.471935 1.175786
0.039900 0.489783 0.589174
0.066161 0.479191 0.620441
0.163950 0.483405 0.702061
0.427832 0.423136 0.840850
-0.063081 0.441430 0.736860
0.386130 0.401610 0.732038
-0.419450 0.443827 1.050986
-0.270086 0.478324 0.537775
-0.326572 0.491224 0.832113
-0.257131 0.403291 0.951668
-0.203154 0.430926 0.677887
-0.499631 0.411273 0.919206
0.036631 0.415000 0.592184
-0.181364 0.408083 0.809346
0.380430 0.427707 0.977130
-0.168999 0.488904 0.976373
-0.103240 0.442710 0.706994
0.440868 0.476622 0.512272
-0.059828 0.415243 1.046237
0.192753 0.421751 0.783802
0.361673 0.499379 0.843793
0.314047 0.421481 0.988530
0.138904 0.463728 0.627712
0.468371 0.441285 0.536335
0.052556 0.432104 0.823253
0.096898 0.495602 0.547360
0.395077 0.405706 1.071566
-0.034041 0.493296 0.611804
-0.089687 0.486006 1.146813
0.032304 0.427473 0.525186
-0.263370 0.469876 0.829960
0.383853 0.475367 1.152899
-0.079203 0.475663 0.690380
0.160539 0.486609 0.975827
-0.121798 0.433233 1.025655
0.057504 0.460583 0.827664
-0.026758 0.469254 0.550403
0.317571 0.400515 0.811993
0.436476 0.471698 0.725016
-0.094655 0.408086 1.081621
0.324368 0.436557 0.688737
0.361163 0.448705 0.636402
0.235339 0.475259 1.196848
-0.008858 0.400834 0.786765
0.133392 0.473173 1.005283
0.088400 0.440281 1.146885
-0.247999 0.496828 1.166155
-0.434733 0.462310 0.903056
0.044897 0.454731 0.680543
0.098379 0.460162 0.541361
-0.118206 0.420153 0.688542
-0.422119 0.454091 0.838444
-0.250895 0.483326 0.746222
-0.425886 0.489796 0.924089
-0.386264 0.442292 0.692673
-0.047522 0.464705 0.854596
0.032469 0.423787 0.917342
-0.167381 0.413041 0.777944
-0.359256 0.430646 0.588517
0.081853 0.417312 0.739891
0.163659 0.468573 0.578561
-0.231470 0.419506 0.912289
-0.071489 0.493273 0.649025
-0.414309 0.427533 1.039480
-0.273157 0.496882 1.041248
-0.110760 0.409575 1.150616
0.218563 0.421118 0.810685
-0.063510 0.486007 0.991730
-0.211503 0.424251 1.070515
-0.052902 0.437791 0.590926
-0.403525 0.428190 1.007770
-0.165553 0.495222 0.617839
-0.117270 0.451083 0.809003
0.434747 0.443736 0.770705
0.205169 0.487263 0.857771
0.309439 0.468411 0.805554
-0.370232 0.422346 0.746538
-0.472791 0.456337 0.927020
-0.062559 0.471115 0.638373
0.076154 0.439738 1.170570
0.050323 0.435922 0.708069
-0.237942 0.447828 0.616506
0.167056 0.490312 0.874646
-0.490369 0.430455 0.636604
0.252488 0.498521 1.016455
0.206777 0.469755 0.731458
0.207815 0.450349 0.559210
0.426832 0.424621 0.922596
-0.498356 0.468160 1.148150
0.079962 0.484591 0.990469
-0.314148 0.437902 0.642877
0.290122 0.421923 1.199057
-0.367934 0.474682 0.938328
-0.063415 0.449427 1.175091
-0.242352 0.499964 0.936152
0.034633 0.432815 1.138682
-0.119072 0.457924 0.804448
0.003318 0.435545 0.836491
-0.428414 0.437578 1.139407
-0.384418 0.443162 0.535444
0.181264 0.462139 0.611863
0.460582 0.414653 0.561657
-0.113866 0.408190 0.585175
0.145409 0.406314 0.781784
-0.107558 0.426622 0.674101
-0.407722 0.410788 0.813477
-0.469665 0.471461 1.107415
-0.434470 0.470580 1.053933
0.425500 0.403004 0.982568
-0.447736 0.424700 1.072090
0.473555 0.400560 1.010886
-0.178929 0.407465 0.731592
-0.407211 -0.385165 0.360040
-0.405570 -0.419292 0.325154
-0.373904 -0.363008 0.035405
-0.436366 -0.363262 0.237952
-0.431601 -0.417372 0.182980
-0.365313 -0.419953 0.037055
-0.383107 -0.382204 0.341364
-0.417974 -0.376492 0.225537
-0.356555 -0.423595 0.161282
-0.379020 -0.397475 0.055094
-0.353179 -0.402783 0.099961
-0.379085 -0.406275 0.198209
-0.357187 -0.356606 0.342543
-0.374955 -0.357953 0.133430
-0.372204 -0.433278 0.331233
-0.429853 -0.378650 0.363537
-0.439874 -0.396017 0.339538
-0.399314 -0.421613 0.232756
-0.368147 -0.360514 0.147744
-0.377198 -0.423263 0.212806
-0.383335 -0.365152 0.146327
-0.426890 -0.441701 0.355849
-0.371254 -0.402432 0.082265
-0.359126 -0.412200 0.149242
-0.425466 -0.353841 0.249727
-0.448465 -0.386369 0.032518
-0.442486 -0.410245 0.337465
-0.447756 -0.443917 0.276031
-0.388087 -0.436528 0.254770
-0.447731 -0.381442 0.243758
-0.404610 -0.411990 0.255973
-0.438341 -0.416465 0.030966
-0.422530 -0.377433 0.029135
-0.440757 -0.423398 0.248498
-0.432797 -0.396672 0.382168
-0.358906 -0.376038 0.163523
-0.419293 -0.429264 0.066497
-0.427818 -0.367542 0.283421
-0.414383 -0.403663 0.018856
-0.359478 -0.420041 0.332711
-0.397915 -0.350122 0.169873
-0.400333 -0.384605 0.047381
-0.423438 -0.360419 0.389094
-0.416632 -0.375234 0.342484
-0.429309 -0.354943 0.054623
-0.444550 -0.402215 0.350663
-0.405595 -0.387657 0.280693
-0.442581 -0.445581 0.173453
-0.438601 -0.411302 0.083214
-0.369359 -0.406081 0.123999
-0.402353 -0.414513 0.311201
-0.362284 -0.352597 0.382210
-0.449380 -0.403097 0.360898
-0.374283 -0.413585 0.015280
-0.400331 -0.409978 0.393596
-0.403921 -0.362073 0.370171
-0.360625 -0.369913 0.007593
-0.368264 -0.390993 0.019690
-0.382644 -0.396515 0.180375
-0.432397 -0.379752 0.281262
-0.364045 -0.417509 0.342110
-0.403514 -0.449731 0.363499
-0.405578 -0.427536 0.279797
-0.371480 -0.391634 0.326000
-0.372560 -0.391952 0.270646
-0.355728 -0.377618 0.313951
-0.398768 -0.359668 0.324326
-0.371934 -0.431251 0.181812
-0.378241 -0.423208 0.336487
-0.376429 -0.437187 0.254202
-0.426051 -0.429598 0.362094
-0.449914 -0.373677 0.104051
-0.429553 -0.449910 0.222719
-0.360493 -0.370052 0.307964
-0.389779 -0.423446 0.076210
-0.418379 -0.433995 0.277395
-0.396801 -0.426895 0.161686
-0.366788 -0.425434 0.352541
-0.369911 -0.359201 0.154846
-0.410290 -0.362715 0.260387
-0.350150 -0.405854 0.380274
-0.378452 -0.370791 0.356544
-0.402526 -0.422577 0.309104
-0.385863 -0.444405 0.288917
-0.419532 -0.438842 0.206581
-0.404873 -0.379791 0.346726
-0.446931 -0.351143 0.079406
-0.445114 -0.368708 0.292515
-0.388240 -0.393604 0.140116
-0.370038 -0.427135 0.224704
-0.379627 -0.437776 0.035010
-0.425480 -0.442910 0.285642
-0.424053 -0.369430 0.147721
-0.449845 -0.361262 0.192658
-0.404952 -0.402402 0.115003
-0.364908 -0.406330 0.248104
-0.378929 -0.354581 0.328293
-0.366424 -0.376285 0.301108
-0.354603 -0.442034 0.325004
-0.376366 -0.386949 0.316392
-0.394722 -0.434906 0.166602
-0.437558 -0.368689 0.340325
-0.430428 -0.392339 0.279557
-0.368101 -0.444651 0.271514
-0.416870 -0.374681 0.039274
-0.397238 -0.388151 0.108581
-0.381544 -0.398607 0.123973
-0.380772 -0.439430 0.395378
-0.354334 -0.448657 0.209988
-0.446284 -0.435237 0.277413
-0.375820 -0.388452 0.001173
-0.395199 -0.405106 0.244031
-0.421601 -0.395401 0.310411
-0.381119 -0.394496 0.029754
-0.439170 -0.383664 0.027177
-0.414011 -0.397090 0.099100
-0.390643 -0.369707 0.218010
-0.373051 -0.420360 0.323362
-0.352498 -0.446491 0.097869
-0.364703 -0.405897 0.203471
-0.383397 -0.412428 0.341184
-0.358673 -0.389265 0.311689
-0.359757 -0.371751 0.222244
-0.441528 -0.374020 0.203777
-0.446027 -0.414937 0.252554
0.382916 -0.357772 0.023475
0.357908 -0.392436 0.010307
0.413597 -0.407735 0.105710
0.383841 -0.393165 0.165419
0.398076 -0.402494 0.053933
0.410709 -0.386933 0.219182
0.385362 -0.421006 0.253648
0.449355 -0.362418 0.133723
0.369258 -0.369627 0.306508
0.444060 -0.390472 0.071353
0.436630 -0.366840 0.199640
0.365342 -0.430937 0.026208
0.384155 -0.436160 0.330103
0.444478 -0.412439 0.090921
0.433205 -0.350863 0.171453
0.422062 -0.424271 0.279244
0.354959 -0.430217 0.187351
0.371432 -0.401016 0.190455
0.419690 -0.392694 0.054669
0.426988 -0.385023 0.191506
0.406051 -0.419173 0.046440
0.375000 -0.430042 0.389683
0.370372 -0.441107 0.390363
0.408138 -0.420308 0.089779
0.406837 -0.435810 0.117775
0.359151 -0.410381 0.280733
0.397373 -0.424691 0.040201
0.411063 -0.398299 0.246013
0.424393 -0.366607 0.356062
0.441452 -0.386459 0.105138
0.385264 -0.383461 0.154444
0.411538 -0.422750 0.206261
0.433128 -0.370002 0.343070
0.383122 -0.393433 0.316427
0.435931 -0.430812 0.211076
0.416798 -0.406377 0.136510
0.438082 -0.409336 0.084662
0.425523 -0.386656 0.061561
0.386156 -0.354160 0.277959
0.432191 -0.403534 0.219006
0.440909 -0.440240 0.142878
0.448263 -0.388947 0.165265
0.428537 -0.372240 0.345951
0.433719 -0.385982 0.252078
0.358789 -0.402795 0.137150
0.378091 -0.434139 0.198242
0.426522 -0.367226 0.347964
0.386966 -0.407414 0.265706
0.445036 -0.357985 0.140583
0.365309 -0.366664 0.124489
0.439094 -0.378371 0.026525
0.360185 -0.371886 0.327200
0.420251 -0.356741 0.330308
0.372800 -0.440343 0.192150
0.390716 -0.368483 0.264962
0.359859 -0.368144 0.041322
0.351357 -0.403528 0.274700
0.410420 -0.433121 0.392714
0.437386 -0.405373 0.225075
0.432494 -0.439499 0.362589
0.380418 -0.449486 0.185205
0.388271 -0.424222 0.207736
0.411871 -0.424785 0.221544
0.417187 -0.394711 0.161021
0.431059 -0.350862 0.111778
0.394380 -0.402549 0.239135
0.379260 -0.394043 0.284213
0.372923 -0.378416 0.328241
0.404854 -0.389286 0.206537
0.409824 -0.355264 0.169302
0.402769 -0.393832 0.035159
0.354292 -0.413907 0.363859
0.432217 -0.401697 0.132795
0.428749 -0.406195 0.076201
0.376762 -0.419767 0.268335
0.370442 -0.396470 0.187365
0.402057 -0.382917 0.331053
0.369889 -0.425674 0.100458
0.387475 -0.359562 0.238155
0.387366 -0.434535 0.252944
0.354940 -0.385580 0.171065
0.411972 -0.436074 0.277332
0.377688 -0.398980 0.313375
0.442236 -0.366783 0.269175
0.401699 -0.376271 0.069114
0.358912 -0.415935 0.358046
0.371097 -0.409819 0.334344
0.441836 -0.419266 0.127807
0.367813 -0.425353 0.255956
0.360324 -0.358369 0.198740
0.413237 -0.437551 0.035671
0.431667 -0.431000 0.067398
0.387696 -0.409926 0.075403
0.371017 -0.384102 0.014298
0.437649 -0.390855 0.293697
0.385721 -0.365582 0.169473
0.350109 -0.442029 0.032303
0.399200 -0.386104 0.398638
0.436490 -0.367501 0.179039
0.416673 -0.392578 0.351018
0.399189 -0.370494 0.223974
0.401008 -0.418962 0.297391
0.416986 -0.390755 0.094938
0.423797 -0.437799 0.173257
0.436675 -0.395485 0.126980
0.382013 -0.392993 0.135440
0.444177 -0.431541 0.254536
0.438519 -0.394150 0.123018
0.415856 -0.390157 0.121032
0.447955 -0.362634 0.336365
0.399528 -0.355025 0.063316
0.428161 -0.431411 0.247167
0.427124 -0.442163 0.213388
0.416526 -0.352719 0.310864
0.403067 -0.415722 0.215750
0.422555 -0.422384 0.231694
0.432766 -0.364665 0.387875
0.398488 -0.431361 0.120059
0.423381 -0.443997 0.072358
0.412882 -0.426140 0.103923
0.377945 -0.425189 0.119667
0.449042 -0.435818 0.299027
0.367116 -0.369646 0.381038
0.350458 -0.446831 0.304841
0.445820 -0.379588 0.040503
-0.358178 0.374879 0.298650
-0.374215 0.439160 0.081634
-0.355220 0.357107 0.279421
-0.368794 0.360610 0.044591
-0.378042 0.373350 0.003192
-0.413589 0.393985 0.149961
-0.367057 0.447376 0.272937
-0.386815 0.381817 0.231911
-0.350542 0.449938 0.389134
-0.410916 0.436971 0.066975
-0.356307 0.432729 0.208838
-0.400916 0.441486 0.196484
-0.396020 0.357104 0.245234
-0.402866 0.444015 0.116996
-0.441477 0.412940 0.176881
-0.376393 0.384403 0.215150
-0.425797 0.443639 0.252441
-0.449922 0.423018 0.040643
-0.374696 0.385173 0.251177
-0.386053 0.436636 0.352554
-0.376313 0.384544 0.032382
-0.421814 0.431197 0.060829
-0.360663 0.442242 0.365013
-0.404275 0.425075 0.046841
-0.422722 0.432033 0.118480
-0.401431 0.426018 0.022563
-0.381726 0.377100 0.277835
-0.390069 0.358169 0.095728
-0.436172 0.430177 0.304985
-0.445850 0.387695 0.306531
-0.363123 0.403395 0.356529
-0.433274 0.420774 0.034710
-0.413094 0.389365 0.396858
-0.384046 0.355456 0.078359
-0.443424 0.429135 0.131788
-0.354410 0.411205 0.188566
-0.426964 0.388460 0.354602
-0.440840 0.400446 0.258704
-0.397594 0.408247 0.205255
-0.419099 0.399708 0.107705
-0.440908 0.356185 0.052273
-0.446312 0.435622 0.115682
-0.365112 0.426155 0.202115
-0.375990 0.423470 0.336594
-0.423508 0.366939 0.054694
-0.412402 0.447137 0.327032
-0.371998 0.369358 0.173228
-0.380911 0.376440 0.100745
-0.354955 0.386936 0.320507
-0.406689 0.444408 0.267842
-0.362756 0.420183 0.249821
-0.409291 0.432805 0.349750
-0.405439 0.382097 0.289189
-0.370694 0.352099 0.141899
-0.421327 0.438815 0.114540
-0.367422 0.420568 0.273803
-0.399222 0.437480 0.349385
-0.369793 0.396066 0.168564
-0.367634 0.430493 0.318687
-0.391405 0.393248 0.233613
-0.426067 0.377080 0.215482
-0.388919 0.429132 0.243749
-0.374853 0.376296 0.044393
-0.356706 0.369349 0.348156
-0.388130 0.356973 0.309403
-0.373316 0.408821 0.296925
-0.354212 0.420231 0.304526
-0.362838 0.399680 0.121470
-0.379489 0.363545 0.006694
-0.368426 0.361037 0.235262
-0.372979 0.415907 0.317212
-0.382703 0.393741 0.126485
-0.372567 0.352976 0.176408
-0.427460 0.373077 0.177176
-0.398095 0.417205 0.355719
-0.380547 0.362930 0.315711
-0.439713 0.383697 0.195488
-0.419932 0.364696 0.175761
-0.397008 0.448539 0.261961
-0.435323 0.375683 0.219781
-0.443921 0.432865 0.041313
-0.425570 0.402905 0.284884
-0.413307 0.432782 0.278348
-0.435345 0.417085 0.088203
-0.382249 0.374723 0.388899
-0.425881 0.422200 0.167880
-0.392078 0.449921 0.245441
-0.436735 0.369709 0.322446
-0.369759 0.391488 0.306592
-0.393454 0.411766 0.000068
-0.392593 0.442194 0.322572
-0.418441 0.395560 0.068626
-0.395665 0.399174 0.054440
-0.437930 0.362572 0.323247
-0.433206 0.364133 0.266639
-0.401526 0.396487 0.079975
-0.397689 0.430802 0.390673
-0.411495 0.365781 0.013407
-0.400481 0.386475 0.022014
-0.393962 0.351068 0.299557
-0.355676 0.426688 0.095918
-0.447865 0.421092 0.375957
-0.373409 0.397603 0.183168
-0.411163 0.408292 0.395913
-0.408410 0.383173 0.373068
-0.410062 0.351559 0.195714
-0.421261 0.356474 0.280143
-0.363033 0.443612 0.025448
-0.375679 0.379122 0.018843
-0.439453 0.380076 0.252521
-0.355549 0.368559 0.353130
-0.360616 0.356753 0.101682
-0.430546 0.430830 0.384371
-0.376796 0.440298 0.239371
-0.364392 0.381284 0.158291
-0.358472 0.443440 0.113798
-0.380056 0.425130 0.385438
-0.401597 0.360321 0.117215
-0.388039 0.413453 0.000748
-0.393725 0.382270 0.016265
-0.434531 0.383231 0.051656
-0.376483 0.422710 0.150618
-0.442349 0.406418 0.199392
-0.421161 0.355341 0.153965
-0.351460 0.382256 0.138932
0.394543 0.436881 0.141345
0.425520 0.373904 0.189613
0.449412 0.429816 0.334281
0.374332 0.359582 0.326290
0.360766 0.436502 0.332183
0.448429 0.365055 0.292613
0.359107 0.391683 0.132680
0.448667 0.397246 0.054791
0.350238 0.448886 0.321368
0.441223 0.359094 0.368231
0.356298 0.403270 0.308801
0.360321 0.407626 0.251270
0.445026 0.360891 0.156845
0.410813 0.367453 0.217881
0.414870 0.377476 0.087529
0.354911 0.414344 0.322054
0.388819 0.372376 0.226318
0.435146 0.388749 0.362697
0.374580 0.367015 0.254011
0.366986 0.380208 0.289732
0.377388 0.404987 0.031548
0.372848 0.424409 0.391047
0.372764 0.429366 0.392880
0.368398 0.394202 0.399553
0.357193 0.351903 0.362423
0.409400 0.401868 0.225820
0.404690 0.442725 0.395432
0.430042 0.415741 0.017949
0.417491 0.374966 0.380288
0.407323 0.371758 0.191263
0.433663 0.426757 0.358545
0.385746 0.365612 0.256378
0.366293 0.424931 0.249576
0.370423 0.434631 0.055500
0.410645 0.415993 0.041246
0.417463 0.366755 0.147757
0.430676 0.410626 0.367308
0.387304 0.443715 0.398287
0.419837 0.384060 0.355641
0.394717 0.358456 0.226417
0.358709 0.414861 0.178760
0.415359 0.407165 0.173211
0.395688 0.372983 0.358462
0.416808 0.374703 0.089397
0.403715 0.423004 0.238729
0.393862 0.350878 0.385889
0.364919 0.436055 0.182888
0.446072 0.391057 0.313193
0.437425 0.387288 0.011515
0.358844 0.435553 0.171352
0.441449 0.367725 0.153153
0.446786 0.382653 0.355471
0.384785 0.416288 0.193791
0.360735 0.373718 0.069866
0.444806 0.412162 0.160457
0.372706 0.442229 0.120602
0.417436 0.443542 0.046495
0.433769 0.447608 0.087999
0.441961 0.364957 0.198493
0.378484 0.383168 0.266280
0.353982 0.402444 0.176693
0.413421 0.442733 0.369999
0.439171 0.377479 0.123790
0.430436 0.431292 0.079318
0.352245 0.441860 0.292944
0.435033 0.384098 0.296404
0.420823 0.441796 0.206775
0.438324 0.368481 0.049014
0.419104 0.438634 0.014800
0.373681 0.393526 0.317791
0.382076 0.383687 0.315772
0.394500 0.437396 0.213825
0.430980 0.442184 0.360446
0.435731 0.358223 0.050465
0.387359 0.447022 0.336380
0.447053 0.383837 0.090109
0.391476 0.391032 0.055886
0.441898 0.366486 0.157517
0.448166 0.434827 0.261174
0.375658 0.443759 0.100018
0.430543 0.352605 0.102757
0.434940 0.423991 0.302217
0.379546 0.390293 0.244427
0.363081 0.445613 0.350585
0.441355 0.379295 0.374374
0.421048 0.397685 0.271970
0.449460 0.437523 0.166173
0.415923 0.390793 0.111772
0.352846 0.413632 0.241870
0.370467 0.363795 0.083026
0.373492 0.438414 0.090315
0.404875 0.377673 0.143393
0.425857 0.424949 0.171513
0.387927 0.358817 0.341718
0.384568 0.433173 0.355484
0.437660 0.367255 0.148002
0.449062 0.417391 0.113860
0.373705 0.440439 0.075640
0.439791 0.424887 0.279277
0.356335 0.377147 0.278929
0.421196 0.359543 0.047376
0.355124 0.362922 0.053803
0.359965 0.389339 0.306719
0.413086 0.446387 0.079687
0.435209 0.369139 0.292344
0.371916 0.441049 0.220358
0.373162 0.414986 0.279068
0.377819 0.424131 0.039269
0.417423 0.404519 0.047342
0.413123 0.381121 0.038102
0.387134 0.446457 0.153434
0.399964 0.397009 0.007584
0.447764 0.448177 0.113661
0.372667 0.425013 0.260117
0.422012 0.389207 0.166832
0.429663 0.351592 0.275151
0.387908 0.426704 0.379396
0.393877 0.418821 0.100841
0.369990 0.399627 0.141718
0.433386 0.363229 0.017389
0.353288 0.351918 0.333646
0.390509 0.426443 0.026119
0.428594 0.382134 0.282201
0.404491 0.376707 0.161075
0.378079 0.445798 0.376216
