ply
format ascii 1.0
element vertex 796
property float x
property float y
property float z
end_header
<<<<<<< HEAD
-0.422701 -0.172106 0.457865
-0.106741 0.140581 0.493792
-0.407140 -0.255977 0.455697
0.410589 -0.117716 0.493779
-0.075169 0.349270 0.401082
-0.330845 -0.122086 0.405410
-0.140062 -0.478786 0.443524
0.385793 0.025291 0.465577
-0.129125 -0.344850 0.465004
-0.235184 -0.172693 0.433897
0.312732 0.046821 0.448773
0.145629 0.313478 0.480746
-0.081543 -0.196419 0.495242
-0.069948 -0.406174 0.439168
0.046851 -0.066800 0.416886
0.063655 0.480528 0.437273
0.054553 -0.245427 0.424429
-0.401798 0.195623 0.477515
0.073273 -0.355196 0.447215
-0.129571 -0.355271 0.472753
0.008877 -0.165087 0.425262
0.194996 -0.015694 0.440569
0.393292 0.103659 0.411196
-0.233777 -0.470686 0.451087
-0.394544 -0.169138 0.431105
0.223959 0.465608 0.469834
0.280386 -0.359972 0.444968
0.433634 -0.294156 0.482993
-0.219620 -0.110388 0.418203
-0.116088 0.087325 0.422115
0.403509 -0.280046 0.436794
-0.487684 0.029552 0.466443
-0.013802 0.166655 0.496282
0.405178 0.409488 0.403629
0.355437 0.192399 0.415403
-0.259421 -0.334511 0.480284
-0.288128 -0.389940 0.412986
-0.057019 0.452852 0.498305
-0.362946 0.011075 0.472099
-0.297457 -0.440696 0.462946
-0.088080 0.112140 0.409775
-0.356428 0.002210 0.432402
-0.064644 0.267052 0.405176
0.351546 -0.142633 0.412964
-0.092241 -0.163065 0.452230
0.424099 0.386932 0.406109
0.003369 -0.498942 0.411607
0.412672 -0.067683 0.430589
-0.369185 0.002044 0.459260
-0.153531 -0.312590 0.457732
0.440154 -0.091480 0.475204
-0.354833 -0.374258 0.459345
0.036997 0.341109 0.478734
-0.304866 0.094219 0.427636
-0.253370 -0.200942 0.451011
-0.160627 0.116082 0.444885
0.068104 0.336772 0.489455
0.163660 0.430357 0.441216
0.212848 0.243968 0.430575
-0.073526 0.342892 0.478161
0.325542 -0.485252 0.459372
0.109800 0.088248 0.448705
-0.189225 -0.442393 0.474660
0.125023 0.232006 0.411044
0.046078 -0.008694 0.472974
-0.441574 -0.347358 0.439172
0.089695 -0.381648 0.493155
-0.411630 -0.448001 0.455427
0.441274 -0.372530 0.485836
-0.117028 0.363310 0.461225
-0.144751 -0.232852 0.490178
-0.160367 0.150568 0.442396
0.179243 -0.414496 0.492497
-0.432145 0.403541 0.499012
-0.385381 0.441608 0.458054
0.252440 -0.005791 0.458936
0.384175 -0.432370 0.466659
-0.390576 -0.274976 0.405999
-0.075818 -0.186144 0.419352
-0.352449 -0.230524 0.446538
-0.090897 -0.353828 0.456712
0.428610 -0.229327 0.413767
-0.047900 -0.219345 0.462586
0.046566 -0.460436 0.432633
0.189868 0.056825 0.434592
-0.429071 -0.299004 0.473293
-0.430652 0.347340 0.417586
0.169415 0.449556 0.424406
-0.099548 0.139475 0.484660
0.430616 -0.466663 0.457832
0.295529 0.473850 0.430123
0.346641 -0.256733 0.456349
-0.469036 -0.048909 0.491550
0.494703 0.033889 0.488278
-0.079662 -0.196591 0.449879
-0.280107 -0.109388 0.496123
0.322558 -0.107862 0.479081
0.447836 -0.126490 0.410449
0.010795 0.276734 0.428437
-0.000611 0.496187 0.459293
0.283457 0.451539 0.409458
0.488586 0.337426 0.487761
0.314084 -0.148719 0.409781
0.215109 0.067806 0.429871
0.127186 0.284021 0.447628
-0.084557 0.080605 0.460663
-0.336542 0.049257 0.415188
-0.014754 -0.444666 0.405128
-0.019397 0.012848 0.485869
0.016449 -0.296533 0.405316
-0.398857 0.389700 0.437666
0.000959 0.241458 0.439838
0.368770 -0.147464 0.477076
0.237503 0.235510 0.413331
-0.295228 -0.053921 0.434101
-0.075085 0.153535 0.452560
0.012569 0.426751 0.480690
-0.072913 0.325357 0.479137
-0.241328 0.424791 0.497695
-0.449357 -0.005745 0.414806
-0.325571 -0.160753 0.493984
-0.390373 -0.109492 0.484539
0.385105 0.123901 0.489186
0.009241 -0.302300 0.412186
-0.395762 -0.011705 0.425801
-0.399356 0.485135 0.479453
0.289815 -0.126069 0.487914
-0.109927 -0.009374 0.479136
-0.405014 -0.426588 0.450245
-0.344115 -0.422324 0.490688
0.092627 -0.317798 0.465438
-0.287638 -0.082819 0.407978
0.289584 -0.153814 0.493558
-0.003332 -0.005458 0.437008
0.207858 0.168074 0.482602
-0.370073 -0.421048 0.421096
0.056656 0.184948 0.422992
-0.264969 0.136869 0.452119
-0.138970 -0.254000 0.416075
0.306096 0.080992 0.466808
-0.391070 0.456584 0.437251
0.157947 -0.302809 0.455956
-0.220322 -0.289271 0.415079
0.232748 -0.299342 0.443541
-0.347228 -0.068220 0.487514
0.023730 0.144127 0.480626
-0.099604 -0.159009 0.474969
-0.470556 -0.180479 0.423249
-0.103916 -0.187493 0.431173
0.406888 -0.200597 0.423738
-0.115026 -0.215397 0.428707
0.313451 0.229473 0.410506
-0.135995 0.217959 0.492904
-0.336422 0.420310 0.479316
0.357953 -0.248244 0.455640
-0.017286 0.241568 0.441572
0.034489 0.457138 0.474123
-0.259100 0.385484 0.438382
-0.135413 -0.143060 0.462928
-0.384631 -0.334121 0.496876
-0.326268 -0.232701 0.441680
-0.346986 0.215795 0.484594
-0.283647 0.095600 0.404314
-0.066829 -0.245195 0.454769
-0.277814 -0.092655 0.486468
0.410014 -0.490247 0.492159
-0.175329 -0.326961 0.481495
0.415485 0.140749 0.404745
-0.069285 -0.273290 0.417221
0.448226 0.159022 0.406014
0.350644 0.117944 0.448318
-0.280934 -0.346677 0.469745
0.198720 0.378932 0.414659
0.028426 0.073875 0.423931
0.005623 0.421098 0.440531
-0.368424 0.236316 0.499956
0.057766 0.215617 0.485470
0.326165 0.204506 0.446212
0.047923 0.121963 0.430433
0.369736 -0.235922 0.489942
-0.279459 0.454683 0.473486
0.070420 0.308894 0.410063
-0.399163 -0.052212 0.499635
0.245350 0.129494 0.400900
0.305642 -0.130658 0.463764
0.279777 0.017685 0.455821
0.148274 0.232453 0.492423
0.041412 -0.421124 0.452466
0.086427 0.492398 0.441375
-0.363918 -0.222418 0.426228
-0.264644 0.077967 0.429754
0.081573 -0.496349 0.471196
0.433704 -0.227456 0.480622
0.107524 0.171419 0.493565
-0.279452 0.081646 0.454427
-0.324575 -0.222852 0.479739
0.487598 0.171014 0.489635
0.371827 0.314641 0.417392
-0.214937 -0.096158 0.434655
0.176221 -0.033168 0.498916
-0.028227 0.041813 0.483292
-0.191821 0.024877 0.459651
-0.240667 -0.006394 0.432421
0.265392 0.240175 0.441196
-0.094164 0.411662 0.474082
0.028831 -0.245196 0.466089
-0.419726 0.310263 0.430900
0.264874 0.130515 0.488767
-0.339981 0.224824 0.449343
0.400729 -0.256268 0.469041
-0.413378 0.362479 0.428535
0.412491 0.274242 0.492313
-0.070022 -0.319476 0.485105
0.167017 0.233159 0.446875
0.383540 -0.150052 0.480286
-0.017952 0.349041 0.428723
0.196716 -0.223271 0.439444
0.376792 0.162410 0.442065
0.381594 0.146512 0.449578
0.423491 0.317124 0.469488
-0.165659 -0.378743 0.445267
0.065017 0.422170 0.460149
0.148365 -0.119951 0.431747
0.197559 0.102269 0.470868
-0.212150 -0.277506 0.412870
-0.257924 0.273739 0.439178
-0.248050 0.307672 0.477733
0.319709 -0.435385 0.478734
-0.205605 -0.193526 0.498633
0.257293 -0.069924 0.450064
0.166027 0.427608 0.411501
-0.048316 0.211304 0.429520
-0.205810 0.143367 0.428417
0.002775 -0.136633 0.472357
-0.015758 0.008422 0.409814
0.126411 -0.100262 0.492660
-0.234919 -0.329922 0.435803
-0.335883 0.143678 0.431982
0.312760 0.004846 0.463467
-0.360424 -0.200499 0.472408
0.286413 -0.179756 0.475383
-0.276037 0.077931 0.499668
0.051155 -0.241760 0.494327
0.339601 0.146429 0.493687
-0.142845 -0.267503 0.424197
0.494670 -0.025133 0.401925
-0.304012 -0.344773 0.401150
-0.398643 0.487018 0.486360
-0.287513 -0.249356 0.436722
0.367981 0.333374 0.472112
0.276732 0.037495 0.418694
-0.436394 -0.144685 0.434850
0.106029 -0.442749 0.451386
0.374344 -0.461612 0.431926
-0.352951 -0.313889 0.495483
0.403833 -0.039988 0.424140
0.107192 0.021884 0.420620
0.444301 -0.044438 0.498895
0.169067 0.446915 0.484907
-0.360005 0.280859 0.499592
0.020758 -0.305807 0.421249
-0.384007 -0.323050 0.439601
-0.256345 -0.136786 0.488208
0.384766 0.183586 0.489809
0.344268 0.404398 0.429424
-0.014490 0.385083 0.428402
-0.264387 0.450128 0.662811
0.378143 0.453395 0.893141
0.246071 0.459360 0.963618
0.247248 0.463434 1.137700
0.261374 0.474525 1.031655
-0.484359 0.403328 1.099777
0.428617 0.415253 0.513003
0.094351 0.459511 0.987508
0.153374 0.421525 0.914715
-0.442426 0.452544 1.003362
-0.063327 0.459115 1.065305
0.267578 0.428746 1.022534
0.159534 0.467758 0.887679
-0.250953 0.415572 0.945572
0.111042 0.463100 1.140098
0.243613 0.415480 0.943402
0.425255 0.414613 0.577786
-0.442756 0.446816 0.707581
0.258298 0.446806 1.101963
0.261842 0.427875 0.729283
0.170976 0.464563 0.896028
-0.250434 0.456973 0.992858
0.214349 0.457629 0.581634
0.326731 0.402066 1.011009
-0.254480 0.412896 0.918770
-0.137912 0.426402 0.847858
-0.135994 0.483814 0.750951
0.289237 0.418910 1.107841
0.425622 0.437139 0.645324
-0.075077 0.414045 1.050624
0.397010 0.478495 0.532641
-0.186415 0.409193 0.840788
0.417105 0.412767 1.157905
-0.137828 0.464016 0.944752
-0.234912 0.470126 0.968657
0.441255 0.415367 1.090430
-0.304726 0.418647 1.175806
0.488991 0.465758 0.878332
0.218066 0.420023 0.625435
0.145066 0.463008 0.981883
-0.071963 0.493385 0.674793
-0.242627 0.483062 1.003801
-0.425075 0.477495 1.187548
-0.331341 0.413273 1.023121
0.419332 0.461461 0.860283
0.322691 0.404334 0.592419
0.198682 0.453215 1.063963
-0.353954 0.435451 0.553411
0.349694 0.467088 0.554117
0.261184 0.498425 1.144746
0.005315 0.412974 0.854830
-0.115018 0.461730 0.753218
-0.024075 0.462435 0.738222
0.414044 0.402032 0.923178
0.317294 0.472502 1.072309
-0.150870 0.478633 0.924184
0.400124 0.492944 0.525436
0.444568 0.482298 0.535888
0.144862 0.458002 0.994232
0.135635 0.419891 0.948056
-0.426491 0.455041 0.846581
-0.192812 0.460060 1.027502
0.258655 0.477037 1.197948
-0.082788 0.450084 1.022281
0.276697 0.461934 0.744287
0.383205 0.482611 0.795263
0.362092 0.489323 0.783976
-0.377067 0.448489 0.925614
0.163535 0.478338 1.075339
0.318146 0.413110 0.864923
0.237933 0.429036 0.675939
-0.383584 0.496475 1.161372
-0.478033 0.479660 0.973359
0.158263 0.492476 0.661137
-0.078704 0.453430 0.744292
0.045316 0.458936 1.080368
0.120499 0.440367 0.553603
0.063037 0.476288 0.690174
0.362076 0.474356 0.690407
-0.465212 0.432929 0.707787
0.322793 0.479689 0.674862
0.333761 0.447290 0.808739
-0.229617 0.499357 0.516153
0.105678 0.408419 1.144938
-0.074283 0.439249 0.962855
-0.181276 0.425810 1.062213
-0.412899 0.422223 0.527142
0.241452 0.481358 0.717050
-0.028880 0.446644 0.615636
0.383064 0.401682 0.745641
-0.274497 0.460786 0.724531
-0.143269 0.474534 0.962244
0.182021 0.486813 1.031147
-0.455577 0.408393 1.146840
-0.037364 0.478256 1.027567
0.285130 0.493842 0.785534
0.216533 0.492645 0.680573
-0.033602 0.448028 1.009743
0.061535 0.492338 0.989072
0.410194 0.416293 0.891944
-0.459489 0.437569 0.831822
0.456252 0.484620 0.851111
0.432735 0.441797 1.120829
0.216267 0.496607 0.580454
0.207691 0.409568 1.049947
-0.338319 0.482920 1.099575
-0.464151 0.424286 1.103288
-0.149103 0.499362 0.550207
-0.177808 0.469509 0.626915
0.169001 0.405806 1.079422
-0.068288 0.478887 0.690782
-0.228493 0.471449 0.980606
0.154298 0.434129 0.945857
0.009145 0.499485 0.720962
-0.327051 0.412033 0.693268
0.362157 0.477493 0.724595
-0.143411 0.441593 0.958909
0.191313 0.458586 0.738611
0.271284 0.458176 0.755419
-0.497345 0.412452 0.652543
0.361654 0.430509 1.135540
-0.275071 0.435666 0.644743
0.348754 0.445980 0.985519
0.343899 0.477059 0.613546
-0.007637 0.484836 0.651206
-0.020799 0.427191 0.888006
-0.353733 0.494462 0.802794
0.016535 0.428980 0.991023
-0.442668 0.412996 0.889247
0.333844 0.444333 0.629913
-0.406412 0.485658 1.174186
0.466718 0.403732 0.530438
-0.213289 0.478474 0.735999
-0.460076 0.408187 0.810520
-0.001789 0.449328 0.919762
-0.130251 0.491092 0.801428
0.178333 0.403904 1.056971
0.063437 0.421684 1.104627
-0.412426 0.432558 0.604582
0.237959 0.439607 0.619430
0.304504 0.449652 1.001919
-0.344546 0.420696 0.629022
-0.330095 0.429561 0.686359
-0.277695 0.401409 1.127954
-0.455270 0.421555 1.092419
0.107103 0.400608 0.898259
-0.484047 0.416542 0.784836
0.259086 0.492956 1.084344
0.040752 0.443554 1.003267
0.414131 0.460485 0.994790
0.091022 0.401545 0.584548
-0.099303 0.494439 0.528255
0.457471 0.446713 1.098230
-0.480759 0.457556 0.621371
-0.444316 0.486749 0.578515
0.419455 0.449375 0.570459
-0.450578 0.401196 0.856840
-0.456470 0.479917 0.959591
0.495107 0.465279 0.783394
0.388667 0.444277 0.580083
0.369128 0.470284 0.642328
0.201597 0.418620 1.145827
-0.493169 0.475951 0.504997
-0.120631 0.442935 0.832291
-0.123103 0.421666 0.760082
-0.047682 0.445679 0.531439
-0.237009 0.481254 0.953185
-0.403776 0.467135 0.692226
-0.124872 0.472665 1.176442
0.111030 0.466130 0.946514
0.087124 0.435045 0.701229
0.408003 0.412531 0.997643
0.055618 0.432524 1.056903
0.190302 0.469136 0.649617
0.176554 0.409692 0.871529
-0.097534 0.474767 0.703803
0.274480 0.432914 0.935217
-0.028011 0.463124 0.947275
0.439875 0.476630 0.868465
0.380534 0.411732 0.931251
-0.134882 0.426930 1.105943
-0.408050 0.459568 0.505741
0.445719 0.445643 0.879835
-0.389342 0.483302 0.591497
0.318221 0.494735 0.920918
-0.281174 0.462124 0.566130
-0.226694 0.406386 0.973182
-0.377819 0.461427 0.677640
-0.485111 0.476777 0.529422
0.025505 0.464618 1.090891
-0.488513 0.452748 1.067594
-0.372873 0.406119 1.027715
-0.027902 0.456354 0.731389
-0.211764 0.455495 0.830926
0.137791 0.465357 1.056960
-0.367869 0.499405 0.507860
0.214184 0.479921 1.031827
-0.324458 0.499048 0.885347
0.285214 0.439890 1.043463
-0.162259 0.472558 0.559244
-0.323316 0.479687 0.833898
0.477089 0.458812 0.781175
-0.095529 0.405137 0.514896
-0.362868 0.408902 0.796219
0.455322 0.470927 0.906076
-0.232180 0.454783 1.042356
0.070413 0.409328 0.996376
0.077664 0.463717 0.904743
0.476203 0.485165 0.558781
0.492722 0.406031 1.073305
0.467627 0.418293 0.977001
-0.371176 0.457988 0.989028
-0.396383 0.410233 0.729221
0.013303 0.487428 0.677387
-0.298244 0.471810 0.901792
0.452321 0.483602 0.739115
0.349359 0.430887 0.960723
-0.200491 0.417767 1.164004
0.204039 0.418734 0.828048
0.248153 0.457080 1.180988
0.430239 0.498834 0.645417
0.339207 0.474960 1.147424
-0.196601 0.442665 1.143239
-0.298456 0.458207 0.516823
0.046941 0.485801 0.688178
-0.199044 0.407841 0.529572
0.311990 0.450370 0.714817
-0.280484 0.427305 0.824089
-0.133378 0.441610 0.874729
0.146758 0.486412 0.954724
-0.195411 0.440537 0.603462
0.120236 0.406797 0.813109
0.136979 0.477216 0.675643
-0.221609 0.484788 1.060049
-0.059805 0.419151 0.801239
0.186808 0.430326 0.994811
-0.339942 0.491557 0.896209
-0.256467 0.483550 0.564308
-0.198422 0.451304 0.604804
-0.308322 0.448425 1.161387
0.169426 0.481930 0.732214
0.132550 0.485795 0.851236
-0.231091 0.475491 0.781685
0.426325 0.487056 0.509770
-0.413463 0.422482 0.715930
0.390275 0.478850 0.771952
0.310218 0.489052 1.064674
0.351029 0.443357 0.783643
-0.362340 0.473576 0.889386
-0.300882 0.465444 0.708752
0.183682 0.431756 0.993082
0.006861 0.467328 0.777423
-0.004626 0.421865 0.974682
0.139970 0.462393 0.658486
-0.387423 0.441288 0.610433
0.101162 0.429670 1.050584
0.414843 0.484517 1.097734
0.049992 0.464112 0.711321
-0.366975 0.455821 1.062760
-0.036407 0.480687 0.769821
-0.448780 0.444039 0.643380
-0.386051 0.466267 0.978551
-0.145538 0.486087 0.661391
0.101108 0.496667 1.001627
0.288737 0.435668 1.161922
0.444486 0.463243 0.577846
-0.393764 -0.402915 0.357330
-0.416637 -0.436161 0.166397
-0.419437 -0.366597 0.115890
-0.417512 -0.421882 0.049392
-0.366309 -0.364841 0.213273
-0.449414 -0.417066 0.040113
-0.402702 -0.389207 0.248242
-0.378569 -0.377596 0.061897
-0.385497 -0.445729 0.072103
-0.363210 -0.414994 0.169610
-0.398969 -0.435049 0.279802
-0.368787 -0.442842 0.026475
-0.434374 -0.382172 0.251533
-0.446416 -0.413030 0.024718
-0.382319 -0.390168 0.120508
-0.388025 -0.419062 0.366640
-0.363049 -0.438186 0.226975
-0.390740 -0.446057 0.331366
-0.440295 -0.413710 0.169996
-0.362957 -0.381953 0.078861
-0.427126 -0.373417 0.291475
-0.401882 -0.371758 0.196149
-0.394440 -0.449592 0.161989
-0.414006 -0.359403 0.090585
-0.362502 -0.396873 0.021831
-0.416875 -0.425406 0.311163
-0.389921 -0.361445 0.261436
-0.356747 -0.374134 0.223112
-0.362729 -0.355341 0.020829
-0.447819 -0.443507 0.309818
-0.422363 -0.449387 0.132466
-0.365077 -0.356169 0.386954
-0.407279 -0.449447 0.169199
-0.439397 -0.372091 0.259453
-0.378576 -0.434918 0.195790
-0.379799 -0.367977 0.318956
-0.408099 -0.412270 0.398378
-0.401838 -0.424436 0.392457
-0.407082 -0.350325 0.015600
-0.381106 -0.406766 0.045068
-0.382744 -0.390913 0.267882
-0.433591 -0.395472 0.253053
-0.378567 -0.413049 0.257753
-0.388700 -0.388011 0.090604
-0.354895 -0.399599 0.031578
-0.362384 -0.357748 0.283123
-0.444424 -0.388043 0.015689
-0.403314 -0.423809 0.023361
-0.394045 -0.449926 0.250700
-0.377430 -0.376870 0.375783
-0.425593 -0.394279 0.207935
-0.397481 -0.360406 0.231872
-0.427025 -0.389914 0.287222
-0.371075 -0.412294 0.117979
-0.434118 -0.412131 0.175024
-0.426750 -0.363311 0.020838
-0.395535 -0.443775 0.073370
-0.378589 -0.375525 0.194962
-0.364389 -0.366498 0.276992
-0.432493 -0.366388 0.298527
-0.434044 -0.408831 0.095627
-0.407965 -0.377561 0.334254
-0.426264 -0.420360 0.291725
-0.363087 -0.360615 0.280679
-0.374290 -0.420181 0.186855
-0.350591 -0.382997 0.080434
0.353652 -0.386921 0.111950
0.442948 -0.446278 0.387216
0.408937 -0.375215 0.100826
0.443324 -0.402572 0.149122
0.363450 -0.364709 0.330242
0.448629 -0.407736 0.249726
0.415476 -0.415711 0.062127
0.379689 -0.377288 0.237065
0.423685 -0.398892 0.229310
0.406458 -0.396614 0.262418
0.434903 -0.377972 0.119297
0.370990 -0.369920 0.011328
0.382766 -0.424472 0.325473
0.401717 -0.379429 0.314912
0.393674 -0.397560 0.245009
0.424040 -0.402209 0.302815
0.429929 -0.415589 0.107444
0.408041 -0.392266 0.392228
0.410998 -0.364725 0.225862
0.408320 -0.400938 0.358604
0.430292 -0.373594 0.021581
0.381479 -0.449326 0.288552
0.353078 -0.434463 0.106434
0.424851 -0.353451 0.051944
0.432979 -0.416530 0.233686
0.388399 -0.388728 0.152775
0.380901 -0.436159 0.059628
0.413425 -0.411723 0.070167
0.416533 -0.413801 0.097408
0.375310 -0.439706 0.172127
0.424787 -0.434218 0.218130
0.385246 -0.437980 0.046071
0.375069 -0.374156 0.339327
0.373575 -0.421927 0.349627
0.390097 -0.371420 0.035079
0.425091 -0.429378 0.303654
0.375900 -0.356562 0.001754
0.422392 -0.377456 0.237033
0.390889 -0.438777 0.064400
0.448041 -0.407997 0.245591
0.445219 -0.365858 0.157050
0.447983 -0.384101 0.329767
0.378416 -0.438156 0.114528
0.430363 -0.392017 0.135586
0.429475 -0.443869 0.232977
0.433851 -0.362512 0.287287
0.425830 -0.402413 0.364032
0.364406 -0.386308 0.259637
0.449277 -0.366823 0.321287
0.366058 -0.366031 0.139987
0.414405 -0.359840 0.185389
0.393139 -0.362884 0.343026
0.375206 -0.430974 0.061026
0.436691 -0.406121 0.117497
0.352253 -0.445546 0.230250
0.353583 -0.376503 0.321377
0.356563 -0.358928 0.248404
0.430746 -0.400652 0.191256
0.449346 -0.398497 0.143772
0.381799 -0.365220 0.376205
0.419016 -0.358872 0.313839
0.418672 -0.387394 0.086758
0.447998 -0.408118 0.221370
0.375557 -0.445686 0.179488
0.366749 -0.371059 0.057204
0.427314 -0.407629 0.300128
-0.377570 0.412449 0.063905
-0.439399 0.368578 0.293527
-0.408009 0.408564 0.331732
-0.421056 0.370069 0.052845
-0.427394 0.361469 0.207550
-0.395550 0.379236 0.087114
-0.431920 0.355447 0.163479
-0.357327 0.447943 0.284340
-0.427781 0.423344 0.253750
-0.435389 0.405522 0.130772
-0.392044 0.426939 0.356762
-0.356585 0.387054 0.030784
-0.389653 0.396737 0.084971
-0.380003 0.442700 0.037463
-0.421803 0.415789 0.330895
-0.394293 0.401711 0.199659
-0.362105 0.429167 0.063127
-0.449168 0.437672 0.151602
-0.403274 0.423867 0.143594
-0.411345 0.430528 0.279057
-0.419440 0.413994 0.188603
-0.406728 0.408504 0.229759
-0.417890 0.358758 0.102994
-0.422451 0.397191 0.130683
-0.430361 0.357710 0.177179
-0.370623 0.415106 0.255347
-0.431314 0.432956 0.141871
-0.383279 0.370802 0.074934
-0.370515 0.367015 0.328702
-0.393095 0.421515 0.224940
-0.360880 0.384497 0.145719
-0.433555 0.395967 0.353999
-0.423549 0.391832 0.242439
-0.360644 0.359968 0.254160
-0.376043 0.395963 0.320663
-0.411067 0.397361 0.322764
-0.437086 0.423038 0.043860
-0.373783 0.371199 0.300646
-0.369443 0.385388 0.369989
-0.398826 0.387704 0.000658
-0.397796 0.406158 0.329104
-0.404699 0.390977 0.385731
-0.443648 0.401897 0.038774
-0.380909 0.404352 0.393808
-0.385245 0.362951 0.151254
-0.418241 0.361113 0.228427
-0.370982 0.399220 0.160096
-0.353541 0.394464 0.311708
-0.439708 0.427182 0.397874
-0.419684 0.411032 0.343996
-0.403459 0.440909 0.266603
-0.378792 0.390706 0.158620
-0.401333 0.383795 0.334876
-0.438595 0.449731 0.299607
-0.366522 0.368510 0.380389
-0.427362 0.438241 0.057005
-0.403474 0.444243 0.136403
-0.448347 0.435808 0.287882
-0.404658 0.394288 0.179428
-0.380606 0.430158 0.295937
-0.378079 0.423788 0.162530
-0.375158 0.434608 0.277696
-0.424802 0.371567 0.236141
-0.412066 0.437625 0.032902
-0.400053 0.404628 0.198107
-0.357840 0.363753 0.015437
0.356885 0.381958 0.056339
0.397140 0.422771 0.397715
0.354951 0.433771 0.086864
0.358326 0.396134 0.348755
0.425557 0.420289 0.044996
0.408961 0.396933 0.127981
0.408369 0.386548 0.283282
0.437478 0.437395 0.192030
0.436502 0.392905 0.229281
0.378328 0.379542 0.369816
0.390772 0.359181 0.340488
0.389711 0.366221 0.068537
0.421493 0.419538 0.085823
0.417707 0.448894 0.296078
0.413928 0.405248 0.110693
0.394847 0.408306 0.293144
0.352204 0.373355 0.287487
0.358916 0.425296 0.278799
0.370584 0.379835 0.123799
0.407548 0.350837 0.225954
0.370185 0.438842 0.031215
0.443208 0.446578 0.044431
0.415697 0.414645 0.174252
0.396082 0.391720 0.132118
0.407557 0.405902 0.242708
0.386473 0.442129 0.355549
0.362643 0.414890 0.145234
0.354745 0.441141 0.385879
0.389465 0.427702 0.269809
0.432052 0.391542 0.322678
0.380039 0.355080 0.348210
0.420513 0.408348 0.229648
0.375020 0.434535 0.398196
0.402257 0.447613 0.318095
0.385419 0.437962 0.329586
0.424122 0.438245 0.197185
0.394056 0.435624 0.181531
0.422587 0.374798 0.299352
0.380646 0.364390 0.278611
0.394468 0.365656 0.114207
0.440199 0.404650 0.321398
0.447972 0.398345 0.086722
0.419194 0.441972 0.002978
0.440087 0.391517 0.310707
0.373018 0.420541 0.317414
0.387201 0.449204 0.121139
0.443528 0.424667 0.107695
0.437697 0.431574 0.122118
0.370439 0.432948 0.101275
0.359265 0.402949 0.115105
0.425827 0.403628 0.330111
0.448305 0.443641 0.134936
0.397228 0.407700 0.272482
0.437733 0.421587 0.074623
0.421848 0.391097 0.031238
0.421169 0.430740 0.368975
0.412879 0.446624 0.241862
0.397120 0.379405 0.278932
0.428571 0.437654 0.360300
0.401171 0.406836 0.202686
0.435236 0.358618 0.099517
0.386191 0.447883 0.369769
0.392170 0.442523 0.196213
0.394961 0.352648 0.259842
0.436508 0.397783 0.021699
0.374113 0.443266 0.398900
=======
-0.158782 -0.087125 0.457363
0.233318 -0.464991 0.432127
0.223108 0.108220 0.499946
-0.191502 0.342675 0.429513
0.250097 0.054840 0.493297
-0.205557 -0.309263 0.483887
-0.380334 -0.461846 0.453667
0.251210 0.373384 0.449538
-0.388445 -0.362405 0.438342
0.412155 0.237241 0.442006
0.176953 0.096762 0.459597
0.377577 -0.392666 0.451877
-0.430574 -0.015198 0.408288
-0.342115 0.233608 0.456374
0.010018 0.165331 0.488582
0.051599 -0.379234 0.475843
-0.010472 -0.107066 0.414647
-0.315455 -0.321115 0.427553
-0.239486 0.137165 0.490516
0.191990 0.469864 0.499298
0.153869 0.329257 0.428594
0.308477 0.429664 0.414567
0.102940 -0.305950 0.496947
-0.472133 0.359898 0.417512
-0.246155 0.336883 0.451977
0.071069 0.068518 0.453797
0.077358 0.092160 0.462821
0.386144 0.071927 0.434561
0.391337 -0.137738 0.478496
0.366962 0.432555 0.480630
-0.472701 0.136937 0.414428
0.030957 -0.165474 0.428909
0.459697 -0.197955 0.456936
0.050045 0.399674 0.446906
0.434448 -0.014186 0.451192
0.213699 0.150056 0.491022
-0.468862 -0.427892 0.439287
0.297939 0.033028 0.496301
0.393137 -0.085140 0.458504
-0.256029 -0.054629 0.452950
0.101128 -0.402614 0.436124
-0.331890 0.435734 0.410463
0.307529 -0.042705 0.444042
-0.486545 0.202741 0.413181
0.336734 0.079187 0.419375
0.166978 0.345206 0.419192
0.384416 0.211350 0.497918
-0.289692 -0.073336 0.440818
-0.180655 0.132039 0.401097
-0.397680 0.033757 0.425151
-0.323772 0.323689 0.485464
0.453445 0.097443 0.439227
0.307693 -0.481911 0.439106
-0.458578 0.254651 0.461922
0.017687 -0.472666 0.491634
0.346037 -0.490113 0.491549
0.299149 -0.313091 0.456131
0.360388 0.029212 0.411440
0.353781 0.379227 0.405970
0.299141 -0.233402 0.411757
-0.063156 0.188732 0.426022
-0.229116 -0.365813 0.418558
0.499088 -0.124985 0.417048
0.074926 -0.487847 0.403264
-0.311620 0.206957 0.469497
-0.269375 -0.010777 0.483004
0.065017 -0.250937 0.453003
0.246420 -0.039462 0.443591
0.096888 -0.044198 0.419132
0.031209 0.384546 0.428096
0.134859 -0.257565 0.459010
-0.074853 -0.298882 0.410697
-0.264112 0.382129 0.452381
-0.312623 -0.381415 0.447639
0.245393 0.267383 0.447884
0.289039 -0.127872 0.401779
0.477925 0.165330 0.467394
0.194567 0.231745 0.453722
-0.102535 0.411414 0.414630
0.416456 -0.145510 0.473682
-0.022955 -0.169238 0.437113
-0.458278 0.466210 0.473941
0.309193 -0.467851 0.483465
0.148957 -0.489616 0.434851
0.376650 0.440299 0.446798
0.260353 0.441459 0.414963
0.466844 -0.086225 0.470959
-0.271566 0.030683 0.435712
0.131529 0.320561 0.460854
-0.452789 -0.021098 0.439530
0.230563 -0.480989 0.412195
-0.092105 0.340959 0.406682
0.162025 0.013132 0.464202
-0.005950 0.003366 0.449146
0.465544 -0.280655 0.485503
0.443267 0.238181 0.412395
-0.338998 -0.099780 0.492752
-0.216405 -0.085836 0.482416
-0.246944 -0.107747 0.427451
0.301223 -0.393124 0.441031
-0.401481 -0.394188 0.442874
0.077643 0.212891 0.465440
0.340379 -0.170124 0.445591
-0.020823 0.408798 0.424737
-0.173322 0.393244 0.460262
0.437236 0.458654 0.455387
0.341637 0.169712 0.461762
-0.339677 0.239507 0.489907
0.479589 -0.399292 0.427041
-0.251255 0.318939 0.475599
0.124813 0.244443 0.422306
-0.305035 -0.167719 0.425792
-0.058053 -0.100128 0.428311
0.019548 -0.455223 0.446719
-0.212946 0.291307 0.460270
0.423496 -0.166850 0.497804
0.053409 0.385424 0.478804
0.389460 -0.444539 0.473631
0.292557 0.177003 0.429599
0.349273 -0.424969 0.433830
-0.188660 0.098862 0.477887
0.375886 0.055008 0.480205
-0.298526 0.194769 0.444124
0.296912 0.446667 0.430385
-0.196237 -0.259854 0.477010
-0.240831 -0.103049 0.456132
-0.216976 -0.368421 0.403911
0.198034 0.009344 0.492731
-0.457947 0.181306 0.413655
-0.185881 -0.156719 0.458317
-0.175621 -0.433710 0.417427
-0.244906 0.218123 0.453853
-0.359698 0.252639 0.491495
0.398267 0.281904 0.422646
-0.385092 -0.399628 0.412689
0.076823 0.215696 0.414394
-0.280234 0.396032 0.497331
-0.290410 -0.233416 0.441976
-0.486707 -0.382421 0.495218
0.071530 -0.392983 0.488800
0.077067 0.391512 0.497923
-0.358528 -0.365861 0.497165
0.071610 0.265069 0.478723
-0.306878 0.145914 0.453544
-0.338794 -0.100532 0.492586
0.375591 0.495262 0.448084
-0.355632 -0.203211 0.470907
0.461370 0.245117 0.459826
0.360160 -0.346570 0.486413
-0.168196 0.387200 0.498354
-0.373373 0.495861 0.447680
0.423713 -0.080055 0.491018
-0.378449 -0.034709 0.446451
-0.108577 -0.185134 0.419674
-0.281212 0.120635 0.471520
0.091435 -0.295829 0.479981
-0.194578 0.481415 0.466171
-0.198133 -0.140404 0.404467
-0.233909 -0.224411 0.401577
0.209786 0.359477 0.419834
-0.010634 -0.032094 0.412489
-0.233465 0.470281 0.466548
-0.222666 0.485998 0.416104
-0.188378 -0.419606 0.479471
0.164152 -0.232944 0.402612
0.420993 -0.270850 0.404207
0.042391 -0.022949 0.453608
0.142064 0.414138 0.436037
-0.063519 -0.074430 0.422719
-0.263010 0.340184 0.439241
0.339281 -0.192426 0.469579
-0.434353 -0.103626 0.499699
-0.187946 -0.226561 0.401548
-0.424487 0.169841 0.470945
0.161019 -0.415621 0.433214
-0.162756 0.003862 0.467740
-0.495690 -0.395388 0.465895
0.050812 -0.185874 0.486791
0.262618 -0.158223 0.436252
-0.052571 -0.326380 0.440233
0.073431 0.067704 0.432822
0.269837 0.474914 0.415415
-0.103043 0.259034 0.404278
0.029376 -0.089560 0.460449
0.161438 -0.352631 0.478874
0.281204 0.060960 0.456190
-0.227015 -0.492880 0.468124
0.378947 0.223728 0.482772
-0.272312 -0.371958 0.400903
-0.486809 0.429616 0.401876
0.242070 0.187083 0.416660
-0.256148 -0.122296 0.474121
0.179233 0.043642 0.469891
-0.285586 -0.304967 0.439800
-0.161544 0.323083 0.407322
-0.104599 -0.495647 0.428513
0.085147 0.088282 0.450826
-0.183059 0.365274 0.487377
-0.476132 0.237351 0.412128
0.323268 0.381929 0.400012
-0.460846 0.365591 0.479460
0.032004 0.004238 0.440038
0.243637 -0.174853 0.401061
-0.355026 0.279587 0.443762
0.215357 0.085507 0.473921
-0.378331 -0.423619 0.419581
-0.186572 -0.145787 0.406255
-0.287054 0.068780 0.497899
0.211821 -0.284106 0.456753
0.285211 0.325810 0.478308
0.364525 -0.203788 0.420082
-0.119278 -0.490362 0.473594
0.324844 -0.318585 0.457959
-0.213493 -0.286993 0.422455
0.100976 -0.030804 0.431409
-0.394451 0.034522 0.428764
-0.414539 -0.313590 0.449116
-0.028445 0.371185 0.476418
0.281326 0.229734 0.452947
-0.193608 0.176110 0.445106
0.244252 0.411644 0.408328
-0.225351 0.298666 0.493089
-0.307242 -0.055328 0.465575
-0.068382 -0.218887 0.465080
0.070665 -0.407814 0.459604
0.431443 -0.093104 0.493107
-0.170532 -0.408617 0.418993
0.285976 0.492502 0.468126
-0.369277 0.001198 0.415330
-0.375156 -0.166479 0.453328
-0.002547 0.364094 0.401088
-0.234840 -0.174095 0.403591
-0.278824 -0.422523 0.403631
-0.110016 -0.132623 0.468323
-0.062407 -0.485466 0.456317
-0.388925 -0.271535 0.490905
-0.351025 0.373335 0.469367
0.265727 -0.336100 0.453831
-0.197942 0.326480 0.454609
-0.105035 0.409507 0.418815
0.057717 0.220441 0.453712
-0.414032 -0.473884 0.433641
0.409502 0.095191 0.453903
-0.178221 -0.431146 0.425688
-0.330214 0.072853 0.408238
-0.193820 0.032693 0.408595
-0.045929 -0.203124 0.405337
-0.479392 -0.259020 0.471806
0.481292 -0.498770 0.406844
-0.331446 -0.089126 0.422490
-0.279490 0.013943 0.489737
-0.191153 0.173603 0.439588
-0.133769 0.364803 0.407667
-0.022464 0.276872 0.413688
-0.492558 -0.118572 0.444481
0.364423 -0.002623 0.452366
-0.189465 -0.120537 0.433246
0.327151 -0.394001 0.481841
0.024758 0.342819 0.434016
-0.327854 -0.169645 0.466395
0.459408 -0.010438 0.465612
0.207241 -0.079258 0.453155
0.464717 -0.164535 0.467363
-0.289697 -0.000919 0.492140
0.382154 -0.261125 0.440957
-0.309998 -0.051610 0.496259
-0.126124 0.435022 0.908682
-0.136711 0.498090 0.593674
-0.221615 0.415578 0.920281
0.092530 0.412881 0.638418
-0.492940 0.492801 0.859071
0.037269 0.499590 0.821550
0.498027 0.414862 0.908671
0.161418 0.413262 0.814291
-0.172764 0.414150 1.044714
-0.205410 0.426068 0.702689
0.390127 0.443000 1.184493
-0.333606 0.443718 0.554280
0.192927 0.417881 0.521302
-0.199282 0.400412 0.579795
-0.420926 0.477849 0.943758
-0.144260 0.468019 1.026868
0.130651 0.455930 0.897975
-0.157317 0.428699 0.604393
-0.000343 0.445696 0.771098
-0.429397 0.471738 1.016512
0.299865 0.469858 1.186528
0.138119 0.454288 0.878728
0.473468 0.470177 0.741919
0.498225 0.437587 1.160768
0.187670 0.420998 0.683240
-0.085642 0.413132 0.632217
-0.207298 0.467932 0.669821
0.481761 0.479988 0.648756
-0.256906 0.433781 0.789029
-0.282542 0.458335 0.782129
0.405167 0.460857 0.774149
0.178947 0.429468 0.614468
-0.369314 0.444968 0.939845
-0.343146 0.430298 0.872790
0.022322 0.453226 1.140958
0.422433 0.471070 0.878629
-0.077499 0.463941 1.151588
0.069622 0.409355 0.830052
0.042570 0.409902 1.102421
-0.248106 0.434671 0.519288
0.130828 0.441347 0.929811
0.121913 0.459308 0.912669
-0.008057 0.422656 0.833003
-0.481765 0.450308 0.885388
-0.088828 0.480964 0.557434
-0.156494 0.406918 0.847561
-0.184174 0.416521 1.014463
0.449013 0.451596 0.834242
0.017226 0.469556 0.503151
0.262679 0.417151 0.646000
0.029150 0.469068 0.871443
0.099899 0.499806 0.890901
0.203443 0.466309 1.008969
0.095998 0.418727 1.020254
-0.254823 0.422901 0.854048
-0.289840 0.464107 1.080944
-0.367800 0.413766 1.147474
-0.124994 0.475653 1.033902
0.231408 0.498122 0.830108
-0.150743 0.434778 1.017672
0.242161 0.498848 0.864396
-0.232889 0.472074 0.915171
-0.390511 0.438202 1.086782
0.124436 0.403893 0.720643
-0.121665 0.496546 0.778748
-0.045098 0.494099 0.768040
0.144322 0.446937 0.679197
-0.380572 0.430704 0.706565
-0.158385 0.429058 0.509456
-0.022832 0.422527 0.618692
-0.497742 0.412809 0.932025
0.264855 0.491650 0.914929
0.205189 0.448111 1.147758
-0.276100 0.468940 1.068373
-0.083767 0.443608 0.649010
0.017612 0.485557 0.809768
-0.450108 0.472197 1.190476
-0.270010 0.434075 0.625602
0.268548 0.430575 0.889643
0.432755 0.473085 0.563355
0.264686 0.413727 0.751287
-0.414309 0.420361 1.027793
0.217697 0.430841 0.890005
0.290977 0.474894 0.787022
-0.382699 0.495256 0.951603
0.461994 0.484541 0.702867
-0.372282 0.412311 0.561486
0.139247 0.445374 0.805914
0.364953 0.477379 0.911784
0.246824 0.469523 0.795058
0.309670 0.462294 1.034364
-0.093398 0.406783 0.851115
-0.434827 0.458195 0.915002
0.456469 0.463769 0.644771
-0.120525 0.487069 0.845167
-0.406644 0.440049 0.862782
0.232547 0.474141 0.588166
-0.181664 0.492487 0.695570
-0.075667 0.436149 1.035494
-0.210282 0.460529 1.148309
-0.297146 0.474165 0.601026
0.171950 0.400802 1.125305
-0.079828 0.414701 0.707086
0.312740 0.440267 0.676465
-0.092854 0.474223 0.849622
0.391073 0.438830 0.742306
-0.303457 0.482233 1.194365
-0.419500 0.431949 1.015869
0.124925 0.486285 1.030981
0.068579 0.445860 0.575039
0.371451 0.435301 0.804132
0.073644 0.482076 0.810334
-0.043651 0.425247 0.726476
-0.090429 0.444856 0.953436
0.263673 0.443338 0.838395
-0.068476 0.407272 1.041139
0.229267 0.439709 0.791384
-0.076638 0.453871 1.062766
-0.303058 0.488923 0.697078
0.005995 0.478594 0.761843
0.147863 0.469490 1.093542
-0.235237 0.496811 0.549090
-0.020478 0.413377 0.823327
0.150950 0.496234 1.066078
-0.170582 0.416741 0.811220
-0.179981 0.463247 1.031191
0.039002 0.459397 0.802470
-0.141029 0.493912 0.651322
0.212353 0.455006 0.555025
0.139091 0.467142 0.616169
0.134032 0.479366 0.903832
-0.305083 0.402518 0.867204
-0.271584 0.416635 0.939193
0.170062 0.484496 0.826303
-0.353964 0.422136 1.069257
0.116529 0.496132 0.598575
-0.280663 0.477268 0.747572
-0.270394 0.436328 0.951444
-0.120373 0.451703 0.594402
-0.115667 0.458151 0.662395
-0.205423 0.402027 0.916031
-0.355625 0.491064 1.143004
-0.426297 0.463237 0.845475
-0.434849 0.496837 1.149621
-0.385554 0.450728 0.953688
0.483148 0.442855 0.639569
0.218263 0.423112 0.822475
-0.333108 0.467709 0.712201
0.360528 0.403372 0.851223
0.155521 0.443172 0.704984
0.238045 0.426993 1.121085
-0.192773 0.497500 0.737546
-0.374965 0.420230 1.142900
-0.462751 0.492947 1.031411
0.450849 0.497692 0.728219
-0.238857 0.495789 1.187934
-0.445687 0.498889 0.569721
-0.398994 0.452798 0.738909
0.081312 0.460002 0.778893
-0.204251 0.480059 0.684533
-0.492155 0.493246 1.033904
-0.194975 0.421897 0.748396
-0.461506 0.443936 0.570939
-0.207177 0.401390 0.796333
-0.088617 0.420629 1.166299
-0.215637 0.442037 1.025267
0.065962 0.451330 1.043016
0.322382 0.465281 1.069237
0.395862 0.440872 0.674481
0.182554 0.438770 0.928770
0.404749 0.404400 1.038768
-0.078645 0.402686 0.635812
-0.445097 0.441211 1.151488
-0.168113 0.498532 1.054932
-0.394312 0.490552 1.143240
-0.117029 0.473001 0.899769
0.407593 0.425319 0.559028
-0.136698 0.478327 0.817376
0.412412 0.490332 0.996348
-0.149915 0.477591 0.734930
0.374592 0.439848 0.830709
0.442828 0.448395 0.686498
0.200442 0.461553 0.723858
0.004026 0.418622 0.686455
-0.155226 0.423954 0.743619
-0.065603 0.410621 0.851023
-0.036967 0.472682 0.810881
0.340776 0.417648 0.960741
-0.273939 0.499468 1.132833
0.178638 0.431503 0.650707
0.224933 0.445399 0.565715
-0.332559 0.468845 1.156079
-0.119439 0.418130 1.166701
0.358692 0.438543 0.901415
-0.373436 0.475168 1.092461
0.251582 0.483652 0.613510
0.358967 0.403280 1.021079
-0.332208 0.471239 0.592212
0.294820 0.477432 1.184122
-0.015071 0.441222 0.773274
0.293732 0.414140 0.817756
-0.494583 0.436687 0.999909
0.475009 0.427277 1.038814
0.382745 0.489156 0.589910
-0.493989 0.482788 0.930899
-0.395167 0.442401 0.842952
-0.217434 0.444376 0.816335
-0.167342 0.423995 0.654048
-0.377679 0.480102 0.751370
0.113183 0.429338 0.675698
0.309524 0.403744 0.822047
0.110626 0.490723 0.837020
-0.112521 0.469514 0.919759
-0.421872 0.489118 0.882884
0.136235 0.432592 0.823632
0.255059 0.425103 1.072480
0.407157 0.458673 1.055138
-0.451180 0.468375 0.713907
0.427774 0.425712 0.913905
0.294135 0.414168 1.008888
0.163535 0.490588 0.564563
-0.145103 0.480946 0.854175
0.177323 0.482074 0.957766
-0.299410 0.412293 0.715615
0.310124 0.405053 0.729239
-0.036308 0.458962 0.600783
0.157674 0.469655 1.092399
0.395008 0.433909 0.748379
0.454950 0.476008 0.537818
-0.223631 0.498255 1.139508
0.012656 0.454206 1.021808
-0.106364 0.486918 0.747741
0.147982 0.429833 1.117880
-0.269915 0.481807 0.899414
-0.474218 0.469587 1.124420
-0.448852 0.465859 0.901200
-0.134353 0.494223 0.976531
-0.314708 0.492015 0.933792
-0.413775 0.403772 0.605519
-0.428638 0.449229 1.101580
-0.035667 0.476118 0.587428
-0.115019 0.414396 0.521576
0.016257 0.432916 0.716372
0.021109 0.438624 1.024294
-0.159578 0.420369 0.664651
-0.343478 0.439994 0.853020
-0.271432 0.488843 0.591409
0.309886 0.494206 0.941759
-0.002493 0.493935 1.056843
-0.070967 0.405356 0.889862
0.212585 0.467489 0.882648
0.304711 0.413769 1.096235
-0.328984 0.416457 0.960765
-0.466676 0.464118 0.936773
0.317030 0.408837 0.562791
-0.177520 0.405737 0.516701
0.013661 0.468871 0.859118
-0.408686 0.488304 0.654656
0.255292 0.472712 0.555783
0.229824 0.420972 0.856856
-0.279084 0.408392 0.670753
-0.322094 0.432864 0.779492
0.086203 0.474322 0.647407
-0.097913 0.478041 0.673033
-0.096140 0.418170 0.772993
-0.443369 0.418798 0.519463
-0.444981 -0.353699 0.223176
-0.357615 -0.356856 0.191467
-0.445131 -0.425097 0.056087
-0.393606 -0.428315 0.128156
-0.364785 -0.358621 0.008682
-0.356495 -0.423315 0.034248
-0.441888 -0.411635 0.280419
-0.431045 -0.421963 0.258738
-0.384600 -0.410427 0.348854
-0.372477 -0.420551 0.385581
-0.438133 -0.392836 0.316678
-0.392871 -0.407043 0.188058
-0.388189 -0.416200 0.339479
-0.415448 -0.355152 0.095397
-0.446804 -0.384869 0.329596
-0.442370 -0.392285 0.160504
-0.403638 -0.362668 0.169137
-0.449811 -0.446624 0.015357
-0.371745 -0.393806 0.020960
-0.442184 -0.356925 0.063801
-0.419980 -0.389064 0.128255
-0.447542 -0.379207 0.356378
-0.392608 -0.417043 0.022023
-0.398406 -0.435129 0.384567
-0.434046 -0.445640 0.041796
-0.429159 -0.445420 0.294702
-0.406750 -0.440003 0.395748
-0.357117 -0.366094 0.067332
-0.443334 -0.397130 0.165210
-0.413602 -0.389042 0.208247
-0.392954 -0.384115 0.270704
-0.402582 -0.352771 0.065103
-0.396883 -0.388576 0.291375
-0.409035 -0.408507 0.292590
-0.356977 -0.410306 0.154945
-0.365202 -0.354961 0.020970
-0.404399 -0.423518 0.084750
-0.429898 -0.360924 0.080079
-0.395326 -0.396182 0.340374
-0.399609 -0.448003 0.292572
-0.405775 -0.361513 0.102946
-0.400522 -0.448454 0.253068
-0.428343 -0.357181 0.397378
-0.413534 -0.444012 0.319318
-0.444091 -0.403113 0.013667
-0.390168 -0.432610 0.351094
-0.419993 -0.402170 0.076422
-0.390656 -0.390167 0.101186
-0.361195 -0.447978 0.239580
-0.423407 -0.445678 0.378074
-0.390426 -0.386455 0.392497
-0.418260 -0.366928 0.299575
-0.431357 -0.437759 0.222378
-0.433799 -0.445395 0.282200
-0.431188 -0.352935 0.222750
-0.393559 -0.413792 0.338132
-0.385894 -0.404363 0.219978
-0.414803 -0.408423 0.212280
-0.439120 -0.396399 0.194014
-0.367427 -0.393652 0.375939
-0.418898 -0.431602 0.127666
-0.425569 -0.380438 0.156660
-0.392216 -0.444130 0.009283
-0.380231 -0.361029 0.324831
-0.426179 -0.353790 0.056388
-0.408498 -0.426317 0.069216
0.437420 -0.360392 0.335964
0.413552 -0.448119 0.074895
0.363716 -0.427090 0.146658
0.397647 -0.390130 0.290624
0.400909 -0.419010 0.067303
0.398459 -0.425845 0.244139
0.437729 -0.392506 0.110148
0.440753 -0.399535 0.359325
0.355115 -0.447006 0.284697
0.396569 -0.424902 0.027905
0.379983 -0.410005 0.260525
0.431058 -0.394790 0.040660
0.375225 -0.378947 0.179193
0.397787 -0.361294 0.399017
0.413369 -0.405675 0.329614
0.433198 -0.436694 0.342737
0.434824 -0.357890 0.023683
0.432857 -0.360092 0.244311
0.370195 -0.447105 0.146528
0.370717 -0.447570 0.173453
0.396125 -0.359096 0.203466
0.379883 -0.443277 0.385485
0.420305 -0.411160 0.292835
0.382360 -0.448849 0.394007
0.434640 -0.431675 0.297907
0.410768 -0.354174 0.270798
0.381053 -0.405323 0.399235
0.355694 -0.387492 0.007601
0.418038 -0.432719 0.196019
0.364081 -0.411842 0.246523
0.393377 -0.423985 0.304901
0.402268 -0.445384 0.188654
0.365537 -0.426626 0.222119
0.354346 -0.354466 0.343526
0.405032 -0.356821 0.288306
0.360491 -0.371833 0.325447
0.449826 -0.367537 0.220514
0.400865 -0.397263 0.367021
0.356984 -0.422947 0.288104
0.404169 -0.413668 0.269379
0.429580 -0.416872 0.075951
0.358888 -0.419628 0.142079
0.449458 -0.444103 0.312639
0.352234 -0.430334 0.144259
0.357244 -0.415774 0.122893
0.427721 -0.406928 0.093162
0.382582 -0.431721 0.240363
0.407038 -0.448357 0.055950
0.410235 -0.425611 0.170252
0.352841 -0.448175 0.340722
0.392729 -0.361054 0.196869
0.365061 -0.445242 0.364413
0.440958 -0.412566 0.337321
0.379194 -0.364595 0.078536
0.375213 -0.371607 0.040316
0.441505 -0.382894 0.109633
0.384625 -0.414980 0.136892
0.391300 -0.443903 0.297443
0.409407 -0.442038 0.127852
0.354124 -0.385956 0.001755
0.444813 -0.396557 0.342199
0.425549 -0.404375 0.295992
0.358239 -0.386687 0.275837
0.427307 -0.356098 0.056563
0.406176 -0.360728 0.208275
0.392705 -0.375211 0.136386
-0.362090 0.400623 0.398527
-0.370196 0.380849 0.187431
-0.435607 0.382584 0.182085
-0.366759 0.405616 0.385286
-0.388736 0.411150 0.296909
-0.359378 0.362210 0.226779
-0.379452 0.434794 0.397591
-0.403634 0.420218 0.284063
-0.365577 0.405201 0.035145
-0.362556 0.439456 0.082924
-0.425808 0.444718 0.173846
-0.390073 0.374502 0.329339
-0.434024 0.378042 0.049618
-0.376128 0.360353 0.047075
-0.371797 0.371838 0.152526
-0.448499 0.370694 0.148703
-0.408234 0.411656 0.223968
-0.430750 0.369058 0.203175
-0.446912 0.404367 0.232761
-0.438687 0.423398 0.265887
-0.438836 0.414552 0.341409
-0.396324 0.362572 0.267576
-0.420348 0.406197 0.382078
-0.430791 0.439424 0.324127
-0.442542 0.424259 0.219562
-0.428240 0.379049 0.342321
-0.383576 0.436429 0.285462
-0.382157 0.395433 0.121215
-0.443255 0.364674 0.265752
-0.358368 0.434508 0.315179
-0.393885 0.403907 0.372468
-0.428191 0.404845 0.310600
-0.425051 0.417710 0.341925
-0.410807 0.428336 0.052845
-0.447381 0.438892 0.259514
-0.369284 0.402704 0.082804
-0.409619 0.415359 0.209510
-0.379100 0.371036 0.139999
-0.358019 0.378510 0.140182
-0.359078 0.418949 0.149097
-0.408149 0.372075 0.333967
-0.411264 0.414313 0.144173
-0.410243 0.354199 0.026395
-0.351741 0.402056 0.051552
-0.373170 0.432333 0.201575
-0.425330 0.422844 0.383771
-0.373970 0.429003 0.238271
-0.361631 0.422659 0.139768
-0.415711 0.415138 0.390670
-0.405950 0.354645 0.080046
-0.370424 0.381519 0.399228
-0.384953 0.387734 0.062142
-0.422255 0.393354 0.338160
-0.447882 0.446425 0.147004
-0.418953 0.366545 0.229584
-0.438442 0.424896 0.108721
-0.361068 0.447472 0.190763
-0.418909 0.440223 0.146164
-0.406854 0.380790 0.189261
-0.394507 0.424924 0.236572
-0.358081 0.389766 0.212874
-0.419141 0.403169 0.084106
-0.352674 0.384641 0.343536
-0.395956 0.420518 0.177619
-0.430771 0.398546 0.132614
-0.393076 0.405646 0.210309
0.356132 0.448004 0.323209
0.363455 0.354452 0.039370
0.426895 0.355151 0.182648
0.404821 0.365375 0.009625
0.384095 0.377362 0.339488
0.378095 0.437764 0.304436
0.446680 0.420743 0.361132
0.435641 0.361210 0.152575
0.358141 0.358833 0.202753
0.354025 0.390203 0.139994
0.389417 0.419427 0.176977
0.386140 0.355514 0.081405
0.427481 0.408424 0.218169
0.390814 0.403870 0.163048
0.430996 0.435957 0.073389
0.405775 0.368728 0.158151
0.447322 0.361688 0.378789
0.439019 0.430094 0.373133
0.380139 0.438715 0.205526
0.356845 0.402943 0.063745
0.371027 0.395731 0.115108
0.373597 0.400861 0.218034
0.371305 0.373256 0.241123
0.387438 0.367956 0.251203
0.396947 0.394508 0.388515
0.401002 0.382975 0.071458
0.433845 0.368989 0.086761
0.362089 0.395187 0.156542
0.395787 0.447083 0.349413
0.379830 0.391304 0.360058
0.411219 0.439527 0.128255
0.385950 0.422477 0.393057
0.427165 0.351221 0.318304
0.410416 0.411182 0.120305
0.400655 0.390832 0.221817
0.427549 0.435659 0.173955
0.385695 0.383809 0.149711
0.356189 0.448699 0.307228
0.352470 0.355377 0.159067
0.388497 0.413252 0.326881
0.449457 0.373383 0.120087
0.395909 0.370829 0.325606
0.385633 0.350579 0.243480
0.438971 0.413919 0.319524
0.398122 0.391534 0.387726
0.374434 0.434023 0.225163
0.434571 0.351481 0.322728
0.365704 0.444333 0.035423
0.378352 0.413585 0.308727
0.391680 0.419449 0.161973
0.352637 0.449420 0.361453
0.441780 0.350015 0.143224
0.355867 0.362872 0.101913
0.377709 0.435468 0.039429
0.442257 0.404675 0.146741
0.405731 0.420510 0.023952
0.423448 0.412034 0.222878
0.429160 0.411606 0.396539
0.359131 0.401696 0.256303
0.366040 0.414796 0.141348
0.439562 0.403037 0.100283
0.369185 0.358920 0.339649
0.360486 0.378686 0.042464
0.380291 0.429554 0.336111
0.386968 0.379927 0.069631
0.402512 0.415833 0.098873
>>>>>>> 4cd3b7ee5b834302406c3662885395493b85cde8
