ply
format ascii 1.0
element vertex 1000
property float x
property float y
property float z
end_header
-0.476965 -0.086372 -0.122653
0.186311 0.008443 -0.463915
0.406312 -0.227236 0.182413
0.007101 -0.492307 -0.087081
-0.082333 -0.170445 0.462785
0.446136 -0.041265 0.221946
-0.057274 0.131312 0.479037
0.271169 0.414596 -0.067658
0.091455 -0.279263 -0.404534
0.223174 -0.338722 -0.292336
-0.476668 -0.113238 -0.099825
0.114135 -0.314330 0.371712
-0.143309 -0.265915 -0.398437
-0.457505 0.123354 -0.159603
0.236807 -0.119184 -0.423931
-0.287068 0.128613 -0.388653
-0.470409 0.108743 0.129963
-0.347071 -0.052926 0.356006
0.310428 0.348049 -0.180268
0.329938 -0.361687 0.101604
0.022637 -0.499485 -0.001355
0.216004 -0.450628 -0.016633
0.450087 -0.173420 0.131709
0.206231 -0.159463 0.426662
-0.272456 0.319607 -0.271328
0.184345 -0.005019 -0.464749
-0.002356 -0.026277 -0.499303
-0.496203 0.061179 -0.006298
-0.035967 -0.187548 -0.462096
0.449858 0.000895 0.218237
0.055616 -0.487503 -0.096167
0.280011 -0.397746 -0.115724
0.434270 0.247473 -0.012901
-0.020836 -0.160109 -0.473213
-0.085644 0.189478 0.454712
-0.024113 -0.093912 -0.490509
-0.471194 -0.157273 0.056936
-0.087179 0.095647 0.482961
-0.408850 0.212373 0.194267
-0.177487 -0.466050 0.036001
-0.064072 -0.490096 -0.075500
-0.309741 -0.369052 0.133646
-0.318710 0.296437 0.246067
0.471765 -0.096850 -0.134381
-0.320191 -0.061050 -0.379145
-0.231473 -0.354267 -0.266299
-0.025380 0.454352 -0.207172
-0.319815 0.143314 0.356623
-0.304765 -0.257285 -0.301534
0.052753 -0.449283 -0.212983
-0.118350 0.485316 -0.021481
0.402047 0.220091 -0.199796
-0.448004 -0.218570 -0.038977
-0.094077 0.350862 0.343578
0.376114 0.254581 0.209109
-0.315215 0.054648 -0.384257
0.333627 -0.070019 0.365774
0.254980 -0.375650 0.209457
0.022891 0.152527 0.475617
-0.134684 -0.442204 -0.190567
-0.253111 -0.109830 0.416980
-0.255719 0.044267 0.427373
0.087732 -0.491106 -0.033430
-0.247321 0.416793 -0.122945
-0.320724 0.020915 0.383012
0.448994 -0.103766 -0.194002
0.127307 0.201489 0.439540
-0.462668 0.118161 0.148243
-0.190263 -0.451561 -0.099463
0.106018 -0.391423 0.292486
-0.473871 -0.093259 0.129420
0.395147 -0.005909 0.306306
0.196950 -0.171340 0.426443
-0.239099 -0.399210 0.182930
-0.051369 -0.016750 0.497072
0.288205 0.391457 0.117044
-0.208589 -0.108858 0.441181
-0.473476 0.000545 0.160688
0.341133 0.323365 0.170480
0.135652 0.215844 0.430128
-0.304189 0.285790 0.275306
0.163096 -0.225821 0.415217
0.088087 -0.430621 0.238340
-0.087539 -0.170356 -0.461861
0.450733 -0.038170 0.213032
0.263131 -0.313020 -0.287716
-0.222488 0.153035 0.420808
0.311140 -0.042623 -0.389070
0.192658 -0.459376 0.043088
0.322793 -0.115914 -0.363825
0.470456 -0.156818 -0.063871
-0.003091 0.424691 0.263870
0.046373 0.201057 -0.455440
0.232007 -0.278365 -0.344507
0.085892 0.343304 0.353221
-0.395522 -0.169755 -0.254453
0.134368 -0.480454 -0.033306
-0.150175 -0.030543 0.475935
-0.044997 -0.497839 -0.011480
-0.113139 0.486814 -0.014542
-0.038706 -0.498484 0.003915
0.426941 0.025966 -0.258935
0.404575 -0.279058 -0.091902
-0.147975 0.011342 -0.477467
0.078298 0.019031 0.493465
0.163757 -0.424656 0.207005
-0.224183 -0.444339 -0.048011
-0.491041 -0.001444 -0.094216
0.171050 -0.243248 0.401961
-0.158509 -0.046132 -0.471960
-0.084122 -0.208820 0.446450
0.496893 -0.050542 -0.023296
0.213077 0.142158 -0.429406
0.100756 0.459723 -0.168829
0.073093 0.489998 0.067521
-0.457079 -0.169626 -0.110933
0.314288 0.372260 0.112451
0.022129 -0.055884 -0.496374
0.063946 0.345163 0.356052
-0.166921 -0.198175 -0.427626
-0.040337 0.401398 -0.295385
0.481886 0.089936 0.098476
-0.187365 0.271783 -0.375537
0.223492 0.381595 0.233316
0.180523 -0.091295 0.457249
-0.113298 -0.403771 0.272272
0.185381 -0.346425 0.309230
-0.491909 0.072131 0.053130
0.018784 -0.395836 -0.304895
-0.161413 0.356839 -0.310824
0.354312 0.288802 0.202622
0.475483 -0.053969 0.144926
-0.106096 0.395403 -0.287053
-0.214223 -0.126393 0.433743
-0.287532 -0.389076 -0.126272
-0.425342 -0.218930 -0.145443
-0.443670 -0.204759 -0.105974
-0.229239 -0.208650 0.392320
0.007377 0.317353 -0.386306
0.487709 0.085542 -0.069446
-0.316107 0.386951 0.018576
-0.165918 -0.380580 -0.278621
0.399829 0.300229 0.000030
0.285176 -0.356125 -0.204572
0.152689 -0.475773 -0.018055
0.458785 0.168951 0.104745
-0.465291 0.158119 -0.092212
-0.381771 0.320818 -0.036421
0.073491 -0.475625 -0.135574
-0.444153 -0.100192 0.206615
0.099440 0.342494 -0.350442
0.482423 -0.123450 -0.045031
0.125242 0.452060 0.173078
0.419567 -0.096033 0.254442
0.362702 0.343847 0.014707
-0.265893 0.418222 -0.066268
-0.463751 -0.172684 -0.071522
0.257943 -0.416577 -0.099645
-0.364045 -0.342511 0.012566
0.423463 0.178863 0.196691
-0.369787 -0.249188 -0.226192
-0.063685 -0.145284 0.474169
0.449818 0.015752 0.217751
-0.225284 0.347833 0.279748
-0.429179 -0.255407 0.023926
-0.190212 -0.365977 0.282630
0.057912 0.353630 0.348701
0.061494 -0.490622 -0.074219
-0.124362 -0.323772 0.360147
-0.134057 0.436860 0.202933
0.218097 -0.050990 0.447028
-0.320277 -0.231337 -0.306441
-0.296245 0.397874 -0.062730
0.161583 -0.132535 0.454231
0.080557 -0.400858 0.287790
0.060697 -0.286527 0.405238
-0.244952 0.060993 -0.431600
-0.389962 0.264636 -0.167027
-0.271772 0.103342 -0.406768
0.393066 -0.286624 -0.115524
0.057469 -0.093118 -0.487880
0.064209 -0.488855 -0.083054
0.273019 -0.321238 0.268825
0.195138 -0.445064 -0.117642
-0.169664 -0.223126 -0.414040
-0.037817 -0.206813 -0.453650
0.110914 0.218024 0.436078
-0.245661 -0.352510 0.255710
-0.311016 -0.379815 0.094918
0.191954 -0.066832 0.456823
0.133357 0.478794 -0.054517
-0.343417 -0.088092 -0.352569
-0.416188 -0.079493 0.265459
-0.013950 0.096204 -0.490459
0.316997 -0.379518 0.074020
0.281556 -0.411269 -0.039801
0.249447 0.052556 0.430133
0.088905 0.357609 -0.337952
-0.215182 0.198006 0.405574
0.126699 0.069960 -0.478595
0.033118 0.209169 0.452937
0.222281 -0.222122 0.388913
-0.209346 0.389710 0.233025
-0.231917 0.424567 0.126323
-0.086210 0.251122 0.423681
-0.191124 -0.455332 -0.078385
-0.075785 -0.465251 -0.166727
-0.338305 0.248308 0.271833
0.051023 -0.285013 0.407632
0.381365 -0.014575 -0.323030
-0.335070 -0.276493 -0.247547
0.459066 -0.117310 -0.159677
-0.082931 0.249043 -0.425559
0.336024 0.089888 0.359177
0.045754 -0.496739 0.034012
-0.289600 -0.085961 -0.398425
-0.302037 -0.312013 -0.247833
0.104250 0.181311 0.454157
-0.459873 0.041065 0.191914
-0.397204 0.262552 0.152628
-0.228083 -0.196497 0.399208
0.090244 0.272746 0.409226
-0.222642 0.003035 -0.447684
-0.481218 -0.112176 -0.076456
0.319735 0.131242 -0.361310
-0.104313 0.390995 -0.293670
0.232160 -0.434918 0.083357
-0.007590 0.470811 -0.168164
-0.437959 -0.215551 0.108302
-0.393891 0.137975 0.275341
0.142339 0.416250 0.237645
-0.301855 0.117664 0.380839
0.402891 -0.295072 -0.024723
-0.260120 -0.292635 0.310970
0.333455 0.236948 0.287512
-0.332172 0.124336 0.352424
-0.243936 0.000496 0.436457
-0.403893 -0.291620 0.042758
-0.049253 0.468511 0.167546
0.442591 -0.149486 -0.178235
-0.105040 0.481868 0.082281
-0.010347 0.066703 0.495423
0.253436 0.416821 0.109686
0.035969 0.155454 0.473857
0.236911 -0.329103 -0.292514
0.474054 -0.005008 -0.158895
-0.062396 -0.306622 0.389987
-0.174124 0.394185 0.253572
-0.114289 -0.484816 0.043492
-0.339668 0.350571 -0.108286
0.059367 -0.496108 -0.018782
0.318141 0.022221 0.385087
-0.348884 0.350888 0.071819
-0.164713 -0.095515 -0.462327
0.100270 -0.212651 -0.441277
-0.308217 0.112710 0.377225
-0.209575 0.339535 0.301321
0.017371 0.437765 -0.240957
0.208441 -0.394605 0.225476
-0.035735 -0.134689 -0.480189
0.410034 -0.208470 0.195990
0.377311 -0.233432 0.230534
-0.458210 0.197300 0.033420
0.305248 -0.198936 0.342415
0.327567 -0.369128 -0.080279
0.423935 -0.078949 -0.253074
-0.140143 -0.048749 0.477476
-0.408888 0.287266 -0.017002
-0.027428 -0.417127 0.274323
-0.164187 0.420647 0.214706
-0.285014 0.380365 -0.155207
-0.038607 -0.288670 0.406422
0.315552 -0.120524 0.368647
0.141850 -0.282481 -0.387405
0.485311 -0.092102 0.077400
0.353667 -0.045568 -0.350490
0.139880 0.469280 -0.101043
0.370768 -0.274863 0.192306
-0.375191 0.303477 -0.130894
0.008877 0.059074 -0.496419
0.439909 -0.234796 -0.036752
-0.002940 -0.212743 -0.452473
-0.095222 0.096571 -0.481255
0.062545 0.064813 -0.491820
-0.095887 0.284719 -0.399676
0.315614 -0.182475 -0.342186
-0.487590 0.040166 -0.103164
0.135015 -0.479863 -0.038756
0.200822 0.205959 -0.408964
0.103085 0.268745 -0.408839
-0.051660 0.279904 -0.411078
0.272113 0.309266 0.283389
-0.403284 -0.059138 0.289594
-0.128078 -0.315916 -0.365777
-0.474237 -0.102150 0.121097
0.157668 -0.148781 0.450561
0.409304 0.283627 -0.045006
0.039124 0.360369 0.344389
-0.251093 0.390997 0.184590
0.449957 -0.216428 -0.026411
0.147172 0.402242 0.257957
-0.014725 -0.274163 0.417873
-0.338655 -0.300738 0.211824
-0.008563 -0.078983 -0.493648
0.284989 -0.405103 -0.068357
0.163880 -0.195465 0.430043
0.376897 0.025143 -0.327592
0.151907 0.417511 -0.229366
-0.079808 0.352076 -0.345938
-0.347732 -0.081859 0.349831
-0.117317 0.083906 -0.478745
-0.360863 -0.016986 0.345672
-0.227680 -0.008263 -0.445077
0.465532 -0.078133 0.164849
-0.020726 0.220028 -0.448507
-0.116982 0.424040 -0.237709
-0.058647 -0.483005 -0.115182
0.156002 0.239950 0.409984
0.459175 -0.005938 -0.197796
-0.376641 0.073575 -0.320513
0.372784 0.038349 -0.331000
0.178808 -0.454855 -0.105519
0.224052 -0.129377 0.427858
-0.423846 0.263547 0.029959
-0.175225 -0.425842 0.194819
0.139544 0.452053 0.161787
-0.073599 -0.494550 -0.001859
-0.396357 -0.119511 0.280390
-0.229364 0.442584 0.038873
-0.427570 0.258896 -0.012507
0.091325 -0.479911 -0.106514
-0.175636 0.357190 -0.302601
0.037863 0.188328 0.461626
-0.190643 -0.225757 -0.403347
-0.279948 -0.002057 -0.414276
-0.228396 0.432386 0.104296
0.406156 -0.054709 0.286434
0.267188 -0.310457 -0.286752
-0.331840 0.140000 0.346817
0.183360 -0.461744 0.056316
0.498699 0.025084 0.025881
0.255657 0.171061 -0.394180
-0.356891 -0.305465 0.171231
0.172017 -0.398336 -0.248472
0.070726 0.402344 0.288301
-0.432157 -0.167530 -0.187547
-0.342562 -0.207276 0.299480
0.101567 0.011993 -0.489429
0.457588 0.181460 -0.087669
0.106442 -0.407630 0.269273
0.162459 -0.314824 -0.352836
0.464857 0.182314 0.025869
0.043490 -0.108813 0.486074
-0.033091 -0.107023 -0.487290
0.476028 -0.135940 -0.070129
0.398430 0.193471 -0.231996
-0.340593 0.287663 0.226376
0.098377 -0.484467 -0.074924
0.208122 0.006728 -0.454577
0.127131 -0.270008 0.401165
0.357269 -0.319645 -0.142077
0.424984 -0.227524 0.132747
-0.214305 -0.197540 -0.406265
0.282307 -0.334883 0.241155
-0.108058 -0.485164 -0.054217
0.349351 -0.274600 0.229236
-0.277249 -0.343456 0.234885
0.480405 0.064706 0.122572
-0.418467 0.269125 0.049568
0.239243 -0.102908 -0.426817
0.402357 0.296720 -0.008123
0.152960 0.430673 0.202791
-0.227725 -0.445103 0.004976
-0.009973 0.372930 -0.332902
0.139447 -0.476058 -0.062635
-0.104795 0.244189 0.423544
0.361456 0.199577 0.281990
0.344578 -0.206112 -0.297967
0.187481 0.336116 0.319182
0.012939 -0.191531 -0.461680
0.388890 0.054891 0.309437
-0.151904 0.465527 -0.101045
0.386101 -0.136094 0.287061
0.319064 -0.168429 0.346164
0.323338 0.366358 -0.105992
-0.406374 0.163133 0.241345
-0.129255 0.316110 0.365195
-0.422538 -0.168493 -0.207537
-0.231743 -0.356981 -0.262411
-0.388020 0.307511 -0.069838
0.256715 -0.353698 0.242890
0.398874 -0.299362 -0.035804
0.286478 0.388085 -0.131607
-0.151454 -0.432273 0.200503
0.383531 0.267015 0.177783
0.013669 -0.237147 -0.439971
0.258036 -0.426051 0.043571
0.045531 0.417828 -0.270826
-0.437535 0.189002 0.151135
0.249928 0.375067 0.216472
-0.303068 -0.383543 -0.105093
-0.351828 0.182105 0.305050
-0.079816 0.344265 -0.353711
-0.179744 0.310025 -0.348678
0.371903 0.310099 -0.124606
-0.481159 -0.108095 0.082471
0.134023 0.284611 0.388632
0.034835 -0.453008 0.208735
-0.003255 0.326824 0.378386
-0.071030 -0.242260 -0.431584
0.288048 0.293613 0.284288
0.388379 0.185932 0.254148
0.243490 0.351775 -0.258779
0.486323 0.082168 -0.082089
-0.364897 0.248096 0.235157
0.460895 0.111783 -0.158368
-0.229990 0.019572 -0.443533
0.000096 0.455556 0.206080
0.011265 0.265811 -0.423341
0.094057 0.375696 -0.316237
-0.450949 0.041998 0.211852
-0.251393 0.342078 0.264167
-0.496432 -0.055487 0.021836
-0.165231 0.075559 0.465821
-0.396500 -0.269564 -0.141856
0.276579 -0.096445 -0.405219
0.320209 0.136776 0.358830
0.114582 -0.123744 -0.470700
-0.231055 -0.412358 0.163017
-0.190318 -0.461284 0.031561
0.443194 0.078679 0.217688
-0.429926 0.062418 -0.247523
0.310943 0.249755 0.301557
0.166282 -0.467433 0.062103
-0.047363 0.478711 0.136353
-0.482232 -0.040576 0.125722
-0.185045 -0.464471 -0.004957
0.087271 0.404798 0.280218
-0.224137 -0.364831 0.258189
-0.266266 -0.419234 0.057837
0.089341 -0.403370 0.281622
0.352846 0.145407 0.323043
-0.213210 -0.416872 -0.175383
-0.321297 0.170473 -0.343085
-0.271376 -0.076292 -0.412958
-0.038846 -0.140568 0.478259
-0.382107 0.060327 0.316788
0.194087 -0.373980 -0.269201
-0.386053 0.294412 0.119518
0.463195 0.100919 -0.158952
-0.280570 0.383380 -0.155884
0.368493 -0.100130 -0.322780
0.247838 0.434198 -0.006964
0.061672 -0.166317 0.467477
0.053292 -0.474466 -0.148467
0.288268 0.265320 0.310656
-0.365195 -0.052177 0.337506
-0.193391 -0.450925 -0.096263
0.104173 0.202773 -0.445007
-0.194047 0.389162 0.246777
0.479069 -0.102556 -0.099876
0.056054 0.420041 -0.265374
-0.335834 0.253031 -0.270539
0.390635 -0.140118 -0.278875
-0.374149 0.278114 -0.180735
0.370686 0.066621 -0.328867
-0.307051 0.191557 -0.345001
-0.424531 -0.132560 0.228475
0.037322 -0.089028 0.490593
-0.294001 0.404212 0.013268
0.404676 -0.254148 0.147126
0.440543 0.070228 -0.225810
0.174378 -0.465208 0.056340
-0.061043 -0.494333 -0.043693
0.309845 -0.230461 -0.317622
0.465935 -0.100453 -0.151041
0.492536 0.085656 0.008472
0.447323 0.121213 -0.187641
-0.149382 -0.133540 -0.458096
0.208651 -0.045090 0.452141
0.143325 -0.316828 0.359274
0.396692 -0.186070 -0.240860
0.343657 0.325147 -0.161800
0.320709 -0.383594 -0.001037
0.129454 0.310619 0.369807
0.015238 0.162818 -0.472502
0.003451 0.220291 0.448843
-0.159069 -0.025182 -0.473353
-0.144969 0.432444 0.204881
-0.061384 0.341136 -0.360358
0.174184 -0.267120 -0.385106
-0.132854 0.385867 0.288888
-0.196530 -0.283505 0.361941
-0.455059 -0.149881 -0.143030
0.381578 0.158898 0.281335
-0.317652 0.065916 0.380464
0.402784 0.180613 -0.234828
-0.297696 -0.131234 -0.379677
0.059530 0.474942 -0.144520
-0.157640 -0.449847 0.150955
-0.020949 0.439573 0.237353
-0.096563 -0.152853 -0.466167
0.484385 0.113971 0.048807
-0.452439 -0.179871 0.113778
-0.053563 -0.380485 -0.319941
0.416758 -0.107163 0.254614
0.093427 -0.267249 -0.412128
0.089689 -0.444119 0.211458
-0.281118 0.195649 -0.364272
0.287640 0.082277 0.400617
-0.038137 0.481729 0.128387
-0.336694 -0.361245 -0.078354
-0.093005 -0.412570 -0.266713
-0.215624 -0.150507 -0.425269
0.383320 0.066499 0.314076
0.178593 -0.434981 0.169989
-0.410790 -0.226848 -0.172602
-0.347055 -0.019952 -0.359381
0.123515 0.435715 0.211889
0.006671 -0.499884 0.008431
0.303610 0.396254 0.028354
0.339203 -0.337174 -0.145791
0.382953 -0.081895 -0.310870
0.175717 0.204480 0.421084
-0.328377 -0.120357 0.357327
-0.234150 -0.168655 -0.408325
-0.427031 0.176854 -0.190701
-0.195798 0.406165 -0.216085
-0.121879 0.159409 0.457968
0.078160 -0.367421 0.329989
-0.338245 0.306750 0.203704
-0.363691 -0.288508 0.185719
-0.113301 0.172603 -0.455380
-0.415175 -0.145898 -0.237369
0.359725 -0.347177 0.008136
-0.185685 0.184447 0.426029
-0.019411 -0.491801 0.088064
-0.098857 0.067968 -0.485394
-0.039532 0.019998 0.498033
0.042486 0.165986 -0.469727
0.469516 -0.024704 0.170131
0.402479 -0.294985 -0.031537
0.272896 0.091474 0.408853
0.129449 -0.349813 0.332978
-0.038126 -0.495690 -0.053273
0.290856 0.399928 -0.073891
0.356546 0.133961 0.323928
0.459216 0.182666 -0.075856
0.467306 0.152424 0.091608
-0.340116 0.314905 -0.187499
0.318195 0.380342 0.063965
0.250465 0.369139 -0.225841
-0.470607 -0.095039 -0.139629
-0.052577 -0.448813 0.214016
-0.478627 0.001688 -0.144616
0.227286 -0.313340 0.316479
0.031318 -0.490306 -0.092841
0.211640 0.369403 0.262202
0.386993 0.276375 0.154447
0.186450 -0.217132 0.409988
0.314022 0.367643 -0.127393
-0.279157 0.158136 -0.383490
0.323054 0.215775 0.314765
-0.323027 0.049301 0.378448
-0.402977 0.281493 -0.091495
-0.120196 0.481826 0.058278
0.070410 -0.447726 0.211149
-0.134949 -0.457211 0.150820
-0.278765 -0.045452 -0.412583
0.335992 0.093254 0.358348
-0.045761 0.330903 0.372033
-0.454934 -0.161850 -0.129768
0.238815 0.312815 0.308406
0.309426 -0.067270 0.386950
-0.144375 0.451428 -0.159276
0.255845 -0.186132 0.387167
0.031857 0.498621 -0.019041
-0.390255 -0.050587 -0.308451
0.489842 -0.018067 -0.098635
0.146243 0.409730 -0.246444
0.124400 -0.302641 0.378065
0.114156 0.068631 -0.481932
0.302434 -0.250523 -0.309471
0.022724 -0.283522 -0.411216
0.482275 -0.131932 0.002106
0.390699 -0.288104 0.119793
0.394404 0.203196 0.230557
0.393333 0.230432 -0.205402
-0.422901 0.261806 0.051113
0.154467 -0.125838 -0.458590
-0.460969 -0.175515 -0.081864
0.111263 -0.362512 -0.325893
0.435516 0.034357 0.243199
-0.338365 0.009400 0.367996
0.119133 -0.390620 -0.288485
-0.410385 -0.144324 0.246484
-0.442056 0.227399 0.053631
-0.179604 -0.462031 0.065341
-0.066486 0.165719 0.467030
-0.012161 0.188108 0.463106
0.366123 0.338418 -0.037786
0.414965 0.243492 0.136072
-0.030428 -0.475486 0.151616
0.464106 0.069938 -0.172378
0.170076 0.468575 0.038878
-0.218398 -0.215958 0.394543
0.360685 0.343158 -0.046355
-0.448650 0.126446 -0.180900
0.484436 0.116041 -0.043086
0.216977 0.247694 0.376256
0.185743 0.334935 0.321431
-0.331914 -0.340024 0.155617
-0.055132 0.254687 -0.426726
-0.096001 0.288715 0.396771
0.336171 -0.338063 -0.150674
-0.202288 0.200223 0.411084
0.091631 0.426560 0.244234
0.282348 -0.365370 0.191794
-0.233079 0.385418 0.217088
-0.433226 0.092555 -0.231838
-0.153944 0.462893 0.109686
-0.468509 -0.075282 -0.157581
-0.384438 0.280780 0.152874
0.090069 0.353003 -0.342457
0.046757 0.164498 -0.469845
-0.239241 -0.436921 0.043168
-0.498709 -0.035757 -0.003333
0.104376 0.478134 0.102436
0.443727 -0.166182 -0.159656
0.024552 0.403334 0.294481
-0.310822 0.379402 0.097180
-0.017836 -0.437381 0.241619
-0.071153 -0.474106 0.141989
-0.052629 0.040845 -0.495542
-0.315238 0.381485 -0.071372
-0.256771 -0.316155 0.290026
0.342539 -0.230062 -0.282380
-0.195990 0.330105 -0.320341
0.338092 -0.363505 -0.059647
0.135757 0.417731 0.238895
0.348838 -0.111465 -0.340423
0.303288 0.377609 -0.124210
0.388089 0.296418 -0.107349
0.339427 0.358195 0.080533
0.291963 0.034079 0.404471
-0.442454 0.189625 0.135192
-0.264567 0.416222 -0.082243
-0.176220 -0.253222 0.393478
0.166565 0.139588 0.450301
0.464394 -0.183681 0.024484
0.265655 -0.106684 -0.409934
0.090507 -0.483376 -0.090313
-0.259494 0.311525 0.292601
-0.180530 0.156635 0.439175
0.147735 -0.427036 -0.214044
0.478668 0.021823 0.142831
0.152334 -0.474110 -0.044877
0.427337 -0.042855 -0.256021
0.299958 0.399778 0.014244
0.273761 0.354539 0.222164
-0.018955 0.256469 -0.428794
0.163506 0.079260 0.465815
0.473819 -0.072505 0.142263
-0.090257 0.353741 0.341644
-0.203963 0.208364 0.406181
0.071195 0.322186 0.375670
0.197143 0.175990 0.424455
0.264356 -0.418112 -0.072792
0.334920 -0.370797 0.018382
0.141586 -0.235438 0.417758
0.300746 0.386183 0.102052
-0.103800 -0.381390 -0.306214
0.219166 0.252221 -0.371956
-0.476789 0.032051 0.147122
-0.151664 0.262125 0.397855
-0.228907 0.053541 -0.441288
0.252093 -0.421673 0.092958
0.402742 -0.274786 0.110868
0.367481 0.215181 0.262021
0.198644 -0.279242 0.364094
0.122444 -0.482216 0.049756
0.482501 -0.024530 -0.128805
0.414151 -0.192591 -0.203440
0.056672 -0.165351 -0.468452
-0.192988 0.397003 -0.234828
-0.427666 -0.215034 -0.144437
0.331446 -0.281380 0.246918
0.140156 0.190176 0.440669
-0.082874 0.140868 -0.472534
0.407016 -0.264463 -0.119987
0.340066 0.149709 -0.334578
0.060996 0.019977 0.495863
0.416127 -0.187001 0.204618
0.437948 -0.146138 0.191952
0.323531 -0.380235 0.027372
0.221020 0.447541 -0.029271
-0.473046 -0.000320 -0.161948
0.369262 -0.068787 0.330021
-0.218484 -0.285225 0.347723
0.394794 -0.286790 0.109038
0.300016 -0.335598 -0.217634
0.054129 -0.375364 0.325840
-0.372079 -0.200205 0.267349
0.147065 0.383301 -0.285398
0.013342 0.189098 -0.462670
0.414629 0.243382 -0.137286
0.254267 0.173874 -0.393848
0.246912 -0.116298 -0.418938
0.294009 0.398775 -0.067357
-0.363591 -0.228592 -0.256022
0.280668 -0.244958 -0.333498
0.233872 0.042657 -0.439868
-0.171692 0.294217 0.366003
-0.248871 0.166956 -0.400236
-0.460100 0.060067 0.186279
-0.069825 -0.386974 -0.308829
0.055204 -0.105982 0.485510
-0.446085 0.049217 -0.220421
0.487405 0.099057 -0.051231
-0.102156 0.489400 0.007220
-0.394884 0.040786 0.303979
0.279295 -0.398922 -0.113381
-0.320730 0.060398 0.378793
-0.041201 -0.143278 0.477257
-0.394285 0.262364 -0.160326
0.037462 0.372037 0.331941
0.258843 -0.301761 -0.303217
0.310797 -0.253834 0.298284
-0.155985 -0.186266 -0.437005
0.443511 -0.229897 -0.021107
0.476245 0.142776 -0.052973
0.421481 -0.252751 0.092034
-0.339453 -0.058946 -0.362350
0.402591 0.288744 -0.067433
0.175107 -0.252845 0.394217
0.053486 -0.261538 -0.422773
-0.137725 -0.470879 -0.096464
-0.229518 0.220011 0.385897
-0.092687 -0.476982 -0.117885
-0.025313 0.409413 0.285903
-0.495234 0.003790 -0.068767
-0.377925 -0.239224 -0.223483
0.118918 0.204433 -0.440529
0.029815 0.231762 0.442038
0.190081 -0.129165 0.444056
0.427323 -0.107802 0.236165
-0.353476 0.352381 0.029699
-0.129148 0.067888 0.478238
-0.332871 0.150615 -0.341339
-0.315957 -0.337724 0.190037
-0.476816 -0.150397 0.005182
0.296511 -0.306703 0.260796
-0.281777 0.101885 -0.400276
-0.357646 -0.278608 0.210871
0.113759 0.461635 0.154765
-0.390864 0.306119 0.059300
-0.069164 -0.483747 0.105854
0.472617 -0.162009 0.019643
0.324454 -0.088699 0.369949
0.227302 0.280708 -0.345741
-0.043604 -0.145200 -0.476461
-0.452588 -0.196458 0.081042
-0.420152 -0.247974 -0.109459
-0.255848 0.370140 0.218034
0.380516 -0.298616 -0.126635
-0.409712 0.253442 -0.133804
0.487309 0.009297 0.111551
0.200770 -0.181831 0.420273
-0.380997 0.311900 -0.086945
-0.001161 -0.341711 -0.365010
-0.000837 0.428688 -0.257345
-0.003797 0.463315 -0.187948
0.354649 -0.065522 0.346310
0.483950 0.081559 -0.095604
-0.090373 0.258720 -0.418206
-0.283548 -0.097287 -0.400170
0.296901 0.374179 0.147783
-0.014617 -0.472878 -0.161780
-0.196459 0.066991 -0.454880
0.324194 0.129638 -0.357900
-0.273815 0.274621 0.315608
0.002465 0.041513 -0.498268
0.065209 -0.308727 0.387860
-0.055405 -0.441309 -0.228422
-0.425894 0.001333 0.261940
0.062821 0.116808 0.482089
0.376873 -0.303380 0.126204
-0.396169 -0.290700 0.092430
0.274544 -0.391570 -0.145939
-0.198599 -0.451358 -0.082669
0.352592 0.049166 0.351086
0.298417 0.396592 -0.060512
0.446787 0.153580 -0.163691
0.327690 0.311402 0.213654
0.271501 0.418887 -0.028650
0.256629 -0.104579 -0.416179
-0.476308 0.051595 -0.143069
0.407260 -0.285664 -0.050349
0.154834 0.062551 -0.471289
-0.207150 -0.275331 0.362328
0.492197 -0.014383 0.086804
-0.472953 -0.095233 -0.131322
-0.367028 -0.044315 -0.336640
0.109930 0.319948 -0.368169
-0.008148 -0.075531 -0.494195
0.149992 0.113861 0.463182
0.184440 -0.151450 -0.439368
0.173014 -0.052436 0.466172
-0.240489 -0.433982 -0.061844
0.303605 0.073060 -0.390494
-0.100471 -0.270348 -0.408433
-0.195217 0.323077 0.327890
0.113306 -0.143990 0.465219
-0.252326 0.341923 0.263477
0.214907 0.368198 -0.261237
0.355918 -0.344358 -0.068847
-0.291580 -0.397867 0.081750
-0.347064 0.149855 -0.327247
0.386627 0.204423 0.242345
0.042264 0.133825 -0.479901
0.346944 0.301654 0.196558
-0.241972 -0.014131 -0.437321
0.350150 -0.231847 -0.271370
-0.418985 0.271955 0.022180
0.201332 -0.238806 0.390432
0.355519 0.085275 0.341079
-0.438270 0.069640 0.230369
-0.227357 0.190492 -0.402519
0.252793 -0.039995 0.429530
-0.110391 -0.302713 0.382333
0.498311 -0.025609 0.032104
-0.061398 -0.003425 -0.496204
-0.252423 0.340181 0.265631
-0.407898 -0.270651 -0.101822
-0.274920 -0.335076 -0.249286
-0.452634 -0.047076 0.207139
-0.193548 -0.011681 0.460872
-0.150925 0.429675 0.206399
0.220358 -0.195211 -0.404148
-0.197501 0.334866 0.314417
-0.097621 0.053861 -0.487411
0.048041 0.374785 0.327457
0.424874 0.262795 0.020513
-0.328503 -0.366791 -0.086889
0.147234 -0.438587 -0.189641
0.250756 -0.129023 -0.412885
0.495020 -0.020633 -0.067301
0.248011 0.394307 -0.181693
-0.416105 -0.068584 0.268612
0.430594 -0.222791 -0.122282
0.171471 0.190578 -0.429276
0.023897 -0.266699 0.422256
-0.212710 -0.034082 -0.451213
0.069852 -0.422181 0.258619
-0.025047 -0.044728 -0.497365
0.356968 0.348605 0.032373
0.043235 0.470015 0.164975
-0.100097 -0.461789 -0.163498
0.193217 -0.459973 0.033053
-0.152384 0.390201 -0.272988
-0.312010 0.048834 -0.387640
0.126497 -0.481175 -0.049690
0.405792 0.097664 0.275308
0.465175 -0.082168 -0.163891
0.333124 0.370971 0.037539
0.489759 0.064588 0.077232
-0.161532 -0.011302 0.473054
0.440706 0.236170 -0.001530
-0.453501 -0.165555 -0.130109
0.232117 -0.404910 -0.179359
0.290981 0.041150 0.404520
-0.322329 -0.055990 -0.378113
-0.464254 -0.184114 0.023887
-0.110493 -0.297857 0.386099
0.053345 0.381051 -0.319303
0.364321 0.295026 -0.173868
0.206257 0.340348 0.302690
0.055284 0.245140 -0.432262
-0.251324 0.351451 -0.251632
0.418000 0.035580 -0.272048
0.450248 -0.213728 0.039970
-0.463080 0.161994 0.096513
-0.296975 0.046328 0.399574
-0.062264 -0.491426 0.067997
0.225550 -0.365847 -0.255506
0.471414 -0.151040 0.070398
0.328566 0.022153 -0.376236
-0.201099 -0.457109 0.024702
0.431876 0.164498 -0.190848
-0.252473 0.405737 -0.147087
0.460322 -0.194990 -0.009086
-0.095959 -0.455583 0.182307
-0.243673 0.288108 -0.328050
-0.089805 0.486450 -0.072812
-0.414712 -0.151704 0.234521
-0.344518 -0.268221 0.243649
0.094038 -0.401740 -0.282422
-0.032130 -0.419211 -0.270610
-0.354603 -0.248357 0.250151
-0.316978 0.319865 0.217282
-0.488894 -0.103335 -0.017442
-0.165149 -0.029384 -0.471023
0.342251 -0.213272 0.295600
-0.128677 -0.311822 -0.369065
-0.353588 0.338202 -0.102934
-0.450119 -0.216631 -0.021534
0.381468 -0.243887 0.212134
-0.459599 0.169402 0.100359
0.323127 -0.369360 -0.095718
-0.114449 -0.174772 -0.454264
0.118012 0.437407 -0.211538
0.442524 0.191625 0.132105
-0.492564 0.085852 -0.003229
0.298658 0.400535 -0.019369
0.018978 0.315135 -0.387724
-0.460291 0.047137 0.189500
0.028938 -0.422394 -0.265981
0.339579 0.313374 -0.191005
0.468382 0.067568 0.161410
-0.478528 0.130658 -0.062764
0.189163 0.247690 -0.390982
0.103453 0.158790 -0.462691
-0.122536 0.195868 0.443419
0.246358 0.027719 0.434211
0.224458 -0.273937 0.352955
0.415091 -0.203790 -0.190181
0.064848 -0.273267 -0.413666
0.060975 0.318626 0.380473
0.418737 0.238012 -0.134202
-0.002982 0.201610 -0.457542
0.390223 -0.039845 -0.310062
-0.096534 0.483162 0.085064
0.314952 0.189197 -0.339131
-0.311864 -0.116760 0.372972
0.139514 -0.328293 0.350370
-0.168207 0.059800 -0.467044
-0.491920 -0.021287 -0.086958
0.057811 0.405670 0.286513
-0.376941 0.081102 -0.318336
0.093652 -0.459123 0.174458
-0.165214 -0.471732 -0.013169
0.037015 0.371432 -0.332668
-0.061126 -0.347428 0.354341
0.301625 -0.398454 -0.016035
-0.393254 -0.124611 -0.282530
0.452698 -0.203740 0.059622
-0.377860 -0.311393 0.101275
0.492045 -0.086493 0.020258
-0.344979 0.104804 0.346418
0.385377 0.277890 0.155761
-0.255023 0.421923 -0.083336
0.149725 -0.207339 0.429642
0.087040 0.475310 0.128470
-0.046770 0.418081 0.270224
0.365399 0.120059 0.319483
0.146909 -0.414395 0.238106
-0.051295 0.160640 -0.470706
-0.082767 0.107220 0.481304
0.376252 0.320993 -0.073467
-0.088629 0.076377 -0.486119
-0.218139 -0.221717 0.391480
0.283858 -0.268256 0.312190
-0.181447 -0.425441 0.189940
-0.172795 -0.106173 -0.457022
0.038777 0.132962 0.480435
-0.232118 -0.052643 -0.439716
0.001056 -0.152518 0.476169
0.353743 0.005217 0.353325
0.455983 -0.204362 -0.017774
-0.210258 0.058769 0.449819
-0.028559 0.060048 -0.495559
0.127443 0.430337 -0.220382
0.038788 -0.019503 -0.498112
-0.203701 0.246808 -0.384176
0.079292 -0.491806 0.042893
0.014130 -0.499519 -0.016778
-0.445395 0.223402 -0.041408
0.273847 0.415448 -0.049100
-0.254370 0.294602 0.313856
0.434076 0.044214 0.244178
-0.436035 -0.173034 -0.173012
-0.470279 -0.107941 -0.131097
0.477304 -0.145788 0.030447
0.092124 -0.244772 0.426145
0.286351 0.371060 -0.174121
0.426054 0.256100 0.053764
0.283459 0.028746 -0.410883
0.403599 -0.153306 -0.252200
0.224921 -0.166063 0.414528
0.116188 -0.459143 -0.160275
-0.490356 0.087712 -0.043104
-0.486248 -0.095450 -0.066727
-0.255397 0.342668 0.259522
0.072233 -0.493329 -0.037537
0.086145 0.251490 0.423476
0.049342 -0.494039 -0.059081
0.315901 0.046221 0.384799
-0.019166 0.108557 -0.487697
0.440022 0.234823 -0.035200
-0.043703 0.038969 0.496560
