ply
format ascii 1.0
element vertex 1000
property float x
property float y
property float z
end_header
0.424304 -0.032115 -0.262554
0.012252 -0.164079 -0.472152
-0.471916 -0.083376 0.142630
-0.176619 -0.186822 0.428839
-0.129972 0.083339 -0.475565
-0.005871 0.344404 -0.362425
-0.472617 0.072749 -0.146083
0.000413 0.386632 0.317042
-0.309544 0.159296 -0.358897
-0.148437 -0.412222 0.240914
0.219539 -0.302590 -0.332026
0.131143 -0.117036 -0.468086
0.360233 0.057800 0.341894
0.188361 0.352415 -0.300539
-0.166098 -0.464174 -0.083390
-0.064072 -0.198164 -0.454561
0.207665 0.410788 0.195266
0.279301 -0.294019 0.292479
-0.203228 -0.114440 0.442269
0.463971 0.035369 0.182976
0.247456 0.248496 -0.356392
0.261719 0.210734 -0.370263
0.420623 0.137977 0.232461
0.010653 -0.443746 0.230165
-0.146891 0.477849 0.009155
0.380522 -0.175615 -0.272695
0.408138 0.277528 -0.080008
-0.387080 0.311404 0.056542
0.244684 -0.432150 -0.058104
0.118846 -0.003536 -0.485657
0.368075 -0.004232 0.338383
-0.037017 0.331528 -0.372450
-0.149265 -0.365283 0.307064
0.445322 -0.147558 -0.172960
-0.441656 -0.067610 0.224430
-0.371287 -0.009984 0.334733
0.172307 -0.409989 -0.228516
-0.089329 -0.310413 0.381660
-0.292629 0.339147 -0.222143
0.335961 -0.032897 0.368847
-0.403330 -0.031501 0.293825
-0.224672 -0.417167 -0.159669
0.065389 0.100488 -0.485414
0.062869 -0.157734 -0.470284
-0.249692 0.040580 -0.431286
0.158152 -0.223136 0.418567
0.377357 0.252595 -0.209278
0.292443 0.388202 -0.117374
0.065139 0.083791 0.488606
0.219153 -0.257156 -0.368568
0.133914 0.025339 -0.481067
0.440707 0.036469 -0.233340
0.074340 0.344588 -0.354588
0.428303 -0.223846 0.128255
0.314742 0.388293 -0.012872
0.218048 0.081598 0.442489
-0.344958 0.108212 -0.345390
-0.312869 0.355351 -0.160744
-0.280954 0.163145 -0.380064
0.127594 -0.389439 -0.286455
0.052167 -0.468523 0.166626
0.492285 0.087304 -0.005766
-0.309710 0.380975 0.094543
0.457541 -0.200567 0.020720
0.225299 0.436780 0.092000
-0.184493 0.016045 -0.464440
0.225344 -0.430210 0.118909
-0.258894 0.294270 0.310450
-0.481567 -0.071202 -0.114121
-0.467678 -0.176191 -0.015290
-0.189710 -0.361885 0.288183
0.151363 -0.212122 0.426724
0.124156 -0.101981 0.473482
-0.419193 -0.195492 -0.189895
0.201567 -0.250234 -0.383085
-0.156951 -0.330538 0.340751
0.212590 -0.450815 0.039643
0.039787 -0.101069 0.488060
-0.463544 -0.114038 0.148735
-0.239167 -0.201516 -0.390116
-0.427344 0.172312 0.194128
0.496534 -0.024930 0.053225
0.102160 0.271545 -0.407218
0.384824 -0.283579 0.146606
-0.067719 -0.485667 0.097679
-0.095049 -0.279426 -0.403592
0.099890 -0.017990 0.489590
0.370884 -0.093284 -0.322091
0.384025 0.007805 0.320099
-0.445920 0.205144 0.095243
-0.419683 0.037927 0.269124
-0.214611 0.103840 -0.439499
-0.287715 0.408514 0.018346
-0.365991 0.122593 -0.317839
-0.071473 0.424315 -0.254653
-0.352593 -0.153336 0.319634
-0.075100 0.146275 -0.472190
-0.291906 -0.071227 0.399647
0.224585 0.039812 -0.444946
-0.216973 -0.449983 -0.020933
-0.036320 -0.476802 -0.146086
-0.296939 -0.236314 0.325551
0.431643 0.113586 -0.225350
-0.039410 -0.168420 0.469128
-0.284651 0.360765 0.197034
-0.356863 -0.292035 0.193298
0.446555 0.134206 0.180492
-0.097536 -0.483322 -0.082985
-0.312873 0.316073 0.228491
-0.054577 -0.466293 0.172023
-0.255785 0.065857 -0.424543
-0.336509 0.116564 0.350962
-0.336836 -0.091382 -0.358037
0.294182 -0.311583 -0.257629
0.219790 0.364676 0.262114
0.436684 -0.237704 -0.052948
0.319123 -0.333983 -0.191353
0.298400 0.258293 0.306989
0.375599 0.104013 -0.313219
0.235752 -0.267069 0.350849
0.197782 -0.199390 0.413673
-0.348322 0.354056 0.057583
-0.450723 -0.216438 0.001864
-0.083425 0.492928 0.007910
0.468505 -0.092149 0.148364
0.327959 -0.340087 0.163657
-0.435182 -0.064292 0.237662
-0.039773 0.179567 0.464945
-0.201746 0.238481 -0.390417
0.176347 -0.286400 0.369968
-0.132580 -0.475566 0.079120
-0.272625 0.090082 -0.409342
0.280402 0.132889 -0.392066
-0.091584 0.310826 0.380788
0.141087 -0.440459 0.189975
-0.191415 -0.453174 -0.089405
0.299610 -0.368115 -0.157242
0.223377 -0.436995 0.095594
0.377556 -0.242755 0.220277
-0.468945 -0.068821 -0.159229
0.298146 0.401240 -0.010744
0.286270 -0.178940 0.368823
-0.314345 -0.319802 0.221165
-0.448628 -0.174720 0.134928
-0.100474 0.362922 -0.328927
0.294611 -0.243805 0.322123
-0.490886 -0.095003 -0.002292
0.446133 0.104883 -0.199912
-0.353273 -0.101728 0.338894
0.157960 0.447435 -0.157640
0.351962 -0.349723 0.061777
-0.451911 0.208574 0.047675
-0.455336 -0.036484 -0.203318
0.339960 -0.030843 -0.365344
-0.463458 -0.154488 0.106492
-0.271894 -0.407834 -0.098718
-0.200372 0.445101 -0.108334
-0.053046 0.394229 -0.302935
-0.185994 0.462416 0.039723
0.449450 -0.130844 0.175711
-0.336059 -0.349927 0.120894
0.197080 -0.000838 0.459520
-0.066358 0.099590 0.485467
-0.149189 0.363450 -0.309268
-0.399877 -0.299354 -0.022027
0.103528 -0.488196 -0.030767
0.327187 0.329026 -0.186254
-0.419994 0.116765 -0.244890
-0.292523 -0.034567 0.404024
0.443463 0.112523 -0.201691
0.282193 0.172192 -0.375122
-0.266275 0.391734 -0.160133
-0.290814 0.130235 -0.385313
0.265021 0.007327 -0.423923
-0.412556 -0.057241 -0.276624
0.383390 0.056485 0.315945
0.095187 0.357425 0.336432
0.165492 0.071365 0.466390
-0.085266 0.362907 0.333209
0.322753 0.365313 -0.111251
0.420728 0.269919 0.011480
0.217664 0.357232 -0.273875
0.484568 -0.110260 -0.055107
-0.391933 0.301912 0.072373
0.019271 0.417175 -0.274943
-0.089333 0.490667 0.035578
0.385161 -0.190233 -0.255855
-0.464668 -0.103582 -0.152821
0.422796 -0.035058 -0.264602
-0.394967 -0.070915 -0.298282
-0.148019 -0.184487 -0.440517
-0.285470 -0.159108 0.378406
-0.193454 -0.190093 0.420048
-0.236522 -0.121619 -0.423398
-0.179421 0.324832 -0.335101
0.041491 -0.440492 0.232906
0.282118 0.171914 -0.375306
0.402075 0.296710 0.017294
0.472493 0.150821 0.063273
-0.249856 0.432432 -0.023965
0.086039 -0.166661 -0.463488
0.083853 -0.005432 0.492889
0.188185 0.307188 -0.346730
-0.495654 0.065478 0.006303
-0.393108 0.145512 0.272567
0.037491 -0.204321 -0.454805
0.127875 0.083281 -0.476143
0.332466 -0.370421 0.047483
-0.456874 0.194377 -0.059025
-0.357302 0.264973 -0.228309
0.467147 0.177643 0.014707
0.209457 0.425710 0.157793
0.311606 -0.333889 0.203518
0.496450 -0.015558 0.057403
-0.070123 0.454103 0.197164
0.132875 0.363390 0.316689
-0.410147 -0.256509 -0.126423
-0.157860 -0.326310 0.344387
0.265057 -0.231679 -0.355063
0.489413 0.099764 0.022854
-0.213762 -0.190453 0.409919
0.114262 0.485696 0.032308
-0.467731 -0.013712 0.176181
0.033102 0.105571 -0.487605
0.400025 -0.241107 -0.178458
0.473612 -0.013230 -0.159740
0.401232 -0.295457 -0.041445
0.063928 -0.106138 -0.484405
0.207523 -0.453893 -0.030253
-0.254930 -0.352827 -0.246015
0.131528 0.305874 0.373016
-0.324740 0.139981 -0.353482
0.261910 0.048781 -0.423112
0.351430 -0.220761 0.278858
-0.334243 -0.355653 -0.108593
0.294882 0.315947 -0.251440
0.073671 0.335830 0.363030
0.253777 0.292412 -0.316374
0.336662 0.282580 -0.238343
0.103523 0.243461 0.424276
-0.022619 -0.402627 0.295601
0.129405 0.015351 -0.482720
0.023031 0.460701 0.192935
-0.113778 -0.063466 0.482728
0.290453 -0.396325 0.092542
-0.139720 0.385658 -0.285913
-0.074408 -0.274069 -0.411521
-0.225328 -0.175332 0.410470
-0.104580 -0.173072 0.457285
0.188794 -0.447082 -0.120309
-0.214396 0.416177 -0.175588
0.223207 -0.233729 -0.381509
-0.109698 -0.482895 0.069132
0.418875 0.254193 -0.099647
-0.092003 0.407342 0.274969
-0.393241 -0.303479 -0.057117
0.189206 -0.274937 0.372305
-0.470320 0.165049 0.039466
-0.106007 -0.484212 0.065587
-0.323268 -0.372260 -0.083188
0.006814 -0.372573 0.333381
0.477376 0.148555 0.006591
0.200987 -0.444814 -0.108373
0.358860 0.248325 0.244037
-0.081059 0.245740 -0.427833
-0.088443 -0.406938 -0.276730
-0.381976 -0.133903 -0.293538
0.310263 0.381636 -0.089946
-0.416020 -0.092586 -0.261449
-0.118416 0.089472 -0.477464
-0.064608 0.243343 0.431984
0.215226 -0.320447 0.317792
0.087789 -0.460683 0.173391
0.417852 0.047882 0.270383
0.139998 0.069331 0.474967
0.325096 -0.139448 0.353365
-0.267714 -0.012819 0.422096
0.077683 0.203186 0.450201
-0.410589 0.180384 0.221083
0.309379 0.341520 0.194032
-0.125600 -0.396593 0.277378
-0.015305 -0.490678 0.094873
0.398071 0.290635 0.084087
0.481382 0.134914 -0.008349
-0.259469 0.026996 -0.426552
0.254217 -0.253142 0.348271
-0.113541 0.099484 0.476667
0.484362 -0.079160 -0.095535
0.256168 -0.201443 0.379208
-0.270249 0.318301 -0.275045
-0.445765 -0.114282 -0.195533
0.331234 0.189378 -0.323141
0.197736 -0.298331 -0.349141
0.174370 -0.426053 0.195125
0.127987 -0.314584 0.366955
0.127276 -0.453466 -0.167838
0.346586 0.325705 0.154256
0.054684 0.477205 -0.138870
0.498277 -0.040963 -0.006466
-0.025863 0.323443 0.380415
0.051298 -0.129077 0.480320
-0.232874 -0.382461 0.222471
0.367117 -0.101623 -0.323879
0.160455 -0.455377 0.129945
0.430809 -0.083112 -0.239783
0.029048 0.339250 0.366150
0.490132 0.007506 0.098562
0.411159 -0.053290 0.279479
-0.145765 -0.416885 -0.234435
-0.481228 -0.132367 -0.029972
0.374761 -0.259188 0.205854
0.158688 -0.271964 0.388399
0.035986 0.066715 -0.494221
0.499085 0.030147 0.002269
0.390535 0.310301 0.034578
0.415819 -0.236809 -0.144970
0.039000 -0.312749 -0.388158
-0.101457 -0.422027 0.248192
-0.031072 -0.061063 -0.495284
0.317342 0.337614 -0.187910
0.109260 -0.062451 0.483903
-0.262083 -0.163707 -0.393081
-0.463277 0.181942 -0.047662
-0.273351 0.158193 -0.387627
0.031835 -0.256063 -0.428274
-0.007542 -0.475286 0.155067
-0.379709 0.325268 0.004694
-0.483667 -0.047740 -0.117419
0.417376 0.025345 -0.274144
-0.113338 -0.453754 0.176811
0.388305 0.035135 0.313025
-0.450325 0.196725 -0.092230
-0.183786 -0.448599 -0.122398
0.134550 0.473458 0.087943
0.109924 -0.428279 0.233439
0.480854 -0.121718 0.062960
0.293997 0.383074 -0.129693
0.045855 0.306739 0.392184
-0.144354 -0.296327 -0.375968
0.097184 0.152758 -0.466069
-0.469285 0.031174 0.169704
0.074354 0.232216 0.436517
0.266750 -0.322059 -0.274084
0.326300 0.277403 0.258022
-0.213830 -0.120374 0.435645
-0.313717 -0.067660 -0.383411
-0.248753 -0.283593 -0.328172
-0.159101 -0.471376 0.049917
0.161139 -0.411499 0.233886
0.041159 0.397128 0.300990
-0.484771 0.029760 0.118793
-0.255470 -0.427485 -0.044629
-0.414654 0.081363 0.267286
0.494695 -0.027249 0.067338
-0.382781 -0.049944 0.317780
-0.245501 -0.339824 -0.272487
-0.088626 -0.393536 -0.295423
0.360578 0.005454 0.346344
0.268367 0.079672 -0.414284
0.374293 -0.331173 0.015150
-0.305590 0.174072 0.355406
0.240950 -0.072481 -0.432076
0.260014 -0.388886 -0.176522
-0.433568 -0.216016 -0.123917
-0.125307 0.343382 0.341155
-0.174710 -0.232767 0.406566
-0.034351 -0.207502 0.453611
0.012133 -0.494466 0.073187
-0.122993 0.305062 0.376577
0.384869 0.318670 0.018051
-0.168710 -0.143081 0.448403
0.161767 -0.446757 -0.155690
-0.481241 0.120558 0.062230
0.040154 0.220205 -0.447099
0.493791 0.035196 0.070225
-0.117743 0.314502 0.370439
0.220567 -0.181798 -0.410243
-0.013516 -0.301684 0.398502
0.286168 -0.363289 -0.190075
-0.128896 0.479543 0.058516
0.443373 0.100264 -0.208249
0.016578 -0.093611 -0.490879
0.326834 -0.340365 -0.165321
-0.233990 0.414016 -0.154402
-0.252188 -0.207171 -0.378790
-0.495064 0.065620 0.024618
-0.292226 0.238340 -0.328325
0.493244 0.076873 0.028292
-0.483470 0.026365 -0.124747
0.103740 -0.264460 0.411460
-0.217473 0.196570 -0.405050
0.404637 -0.189570 -0.224348
0.149382 0.173476 -0.444512
0.342446 -0.218349 0.291641
0.286984 -0.040156 0.407465
0.400027 0.001369 0.299960
-0.324075 -0.007097 -0.380691
-0.175636 -0.420817 -0.205097
-0.126109 -0.479448 -0.065008
-0.254896 0.221748 -0.368586
0.131152 0.252015 0.411446
-0.320459 0.379693 -0.056026
-0.190341 -0.298222 -0.353319
0.050437 0.480033 0.130476
0.388107 0.249586 0.192561
0.010483 -0.299422 0.400295
0.266939 0.422384 0.018327
0.035881 0.089907 0.490540
-0.038906 -0.395786 0.303050
0.409959 -0.078299 0.275323
-0.034788 0.327180 -0.376488
-0.456080 0.172589 0.110473
-0.315926 0.178101 -0.344196
-0.088501 0.222280 -0.439043
0.331525 -0.252495 0.276293
-0.333685 -0.130463 -0.348760
-0.492200 0.075840 0.044578
0.214521 -0.169348 0.418691
0.333120 0.123155 0.351943
0.291185 -0.401779 -0.061518
0.415680 0.088162 -0.263510
-0.382285 0.201010 -0.251899
0.053445 -0.165854 0.468654
-0.255977 0.128225 -0.409920
-0.118668 -0.224385 0.430778
0.038023 0.007686 -0.498493
-0.182055 -0.213987 0.413601
0.286214 0.060565 0.405480
-0.162944 -0.013469 -0.472512
-0.297379 0.174874 0.361918
-0.271374 -0.128991 0.399647
0.061126 0.495324 0.030300
-0.205449 0.453397 0.047136
0.486752 -0.086814 -0.074405
-0.252418 0.029688 0.430586
-0.251960 -0.427060 -0.064309
0.278808 -0.414726 -0.016385
-0.391830 0.053537 0.305946
0.157496 -0.459156 -0.119877
0.224174 0.345535 -0.283463
0.045032 0.214701 0.449306
-0.174164 0.432142 0.181439
-0.485510 -0.114386 -0.034586
-0.403523 -0.061658 0.288734
-0.347912 0.324451 0.153913
-0.157897 0.003679 0.474400
-0.222839 -0.061025 0.443417
0.232687 0.399723 0.189943
0.135327 0.257557 -0.406634
-0.269914 -0.386647 0.166286
-0.185273 0.328418 0.328353
-0.152239 0.467495 0.090950
-0.217670 -0.092293 0.440570
-0.473107 -0.161769 -0.000529
0.117589 0.113541 -0.472527
-0.401453 -0.039425 -0.295433
-0.330778 0.058656 0.370331
-0.034151 0.408190 -0.286731
0.207723 0.012956 0.454624
0.384540 0.115314 -0.298047
0.226631 0.088412 0.436832
0.178518 -0.053872 -0.463928
-0.111477 0.367031 0.320719
0.475643 -0.014556 -0.153466
-0.350429 -0.353328 -0.048565
-0.199465 -0.198182 0.413446
-0.267883 0.386319 -0.170282
0.197370 0.419613 0.187002
0.129491 -0.278515 0.394540
0.377036 0.309875 -0.108725
-0.466048 0.171312 0.058745
0.311857 -0.374953 0.110251
0.499614 0.008528 -0.017706
-0.411586 -0.026230 0.282682
0.194283 0.020914 -0.460236
-0.459691 -0.049266 0.190412
-0.204688 0.356683 0.284394
0.371223 -0.098232 0.320225
-0.085764 -0.492202 -0.019539
0.431026 0.253048 -0.013558
0.216168 -0.161664 -0.420875
-0.259308 0.259540 -0.339703
0.296333 -0.386480 -0.113225
0.078841 0.485446 0.090145
0.110659 0.371654 -0.315640
-0.084570 0.492313 0.021817
-0.260618 -0.396047 -0.158823
0.129261 0.350521 0.332305
-0.422651 0.249721 0.094899
0.021324 -0.011530 0.499412
0.110584 -0.327066 0.361661
0.474337 -0.029403 -0.155371
0.148836 -0.136113 0.457516
-0.488685 0.105071 0.012122
-0.396448 0.073475 0.295687
0.371012 -0.095921 -0.321169
0.128838 -0.436030 -0.208035
-0.102512 0.199841 -0.446716
-0.042659 0.279214 -0.412577
0.234790 -0.409402 0.165118
0.244184 0.312965 -0.304018
-0.336498 -0.062390 0.364523
0.031181 0.290280 0.405913
0.036150 -0.159125 0.472623
-0.003702 -0.112246 0.487224
-0.056239 0.428839 0.250868
-0.176631 0.101800 -0.456550
-0.073130 -0.279461 0.408110
0.051944 0.457496 0.194933
0.439494 0.229666 -0.064020
-0.100274 -0.333559 -0.358724
0.236620 -0.022089 -0.439913
-0.093073 0.225823 0.436282
-0.063522 0.494310 -0.040283
-0.470337 -0.089705 -0.143999
0.055302 0.470584 0.159662
0.318994 0.196950 0.330838
0.117587 -0.393236 -0.285550
-0.111147 -0.180660 0.452779
0.331382 0.283566 0.244492
0.094002 -0.263479 0.414418
-0.120566 0.283515 -0.393806
-0.250408 0.273495 -0.335405
-0.215635 0.280989 -0.352912
0.349613 0.078552 -0.348713
0.291926 0.326059 -0.241796
-0.121931 0.311203 -0.371867
0.252951 -0.164257 -0.398792
-0.080397 -0.338203 0.359381
-0.144226 0.447578 0.169921
0.248186 0.335803 0.275027
-0.013464 0.093387 0.491017
0.191450 0.023806 0.461281
0.174576 -0.413852 0.219658
-0.120916 -0.435008 -0.214819
0.283673 -0.024419 0.411015
0.225073 0.345900 0.282304
-0.201073 -0.376079 -0.261025
-0.078336 -0.432836 0.237732
-0.382519 -0.223724 0.231575
0.204374 0.222899 -0.398180
0.054856 -0.477871 -0.136492
-0.195143 0.251675 0.385460
0.208589 -0.386592 -0.238824
0.431656 0.030646 -0.250468
-0.203313 0.444877 -0.103674
-0.199287 0.447333 -0.100887
0.212931 0.206441 -0.402545
-0.307427 -0.232169 0.318726
-0.420266 -0.269727 -0.024978
0.000298 -0.025317 -0.499359
-0.433599 0.220448 -0.115734
-0.233613 -0.285091 0.337859
-0.231838 -0.037992 0.441370
-0.283743 -0.407001 -0.061972
0.139836 -0.363912 0.313072
-0.247184 0.387049 -0.197720
0.283505 -0.339421 0.233277
-0.390274 -0.214217 0.227590
-0.383888 0.289098 0.138031
0.026763 0.248655 -0.432960
0.032254 -0.015893 0.498705
-0.151266 -0.440512 0.181845
-0.094954 0.210255 -0.443595
-0.120350 0.391608 -0.286634
0.056761 0.372799 -0.328328
0.277828 0.064558 0.410663
0.096367 0.281061 -0.402142
-0.309197 -0.249677 -0.303411
-0.322339 -0.370445 -0.094169
0.456004 -0.200738 -0.042010
0.337517 -0.266432 0.255140
0.355969 -0.028056 -0.349998
0.024600 0.472738 -0.160977
0.410630 0.056463 0.279634
-0.362563 -0.333619 -0.085127
-0.201252 -0.146408 0.433661
0.369774 0.286534 -0.176537
0.087093 0.187820 0.455125
0.116818 -0.227120 -0.429849
0.339037 0.299508 -0.212953
-0.062002 -0.458822 0.188781
0.137735 0.339608 -0.340140
0.309037 0.023072 -0.392382
0.492616 -0.077845 -0.035625
-0.083955 -0.412168 -0.270313
0.417698 -0.076482 0.263968
0.343678 0.344727 -0.114231
0.095231 -0.219768 0.438900
0.270579 -0.373068 0.193925
-0.058239 -0.333851 0.367629
-0.230661 0.250461 -0.366149
0.366600 -0.241505 -0.239333
-0.152035 -0.394428 0.267043
-0.417107 -0.268110 -0.064335
-0.073468 -0.494573 -0.000151
-0.158098 0.203261 0.428591
-0.334467 -0.038664 0.369644
-0.486341 -0.114804 -0.017101
-0.264787 -0.366627 -0.213243
0.300457 0.306977 0.255911
-0.364169 -0.336235 0.065778
-0.278335 0.326212 0.257129
0.347190 0.029608 0.358584
0.168692 -0.036423 0.469272
-0.234530 0.373341 0.235823
-0.084547 0.410096 0.273264
-0.158049 0.384172 -0.278267
0.199897 -0.392534 0.236555
0.024373 0.405596 0.291372
0.071061 0.116566 -0.481002
0.100840 0.375684 -0.314154
-0.426190 0.162553 0.204788
-0.133545 -0.475358 -0.078743
0.052909 -0.494157 0.054857
0.319005 0.384891 -0.009729
-0.475125 -0.112402 -0.107807
-0.430674 0.165558 -0.192640
-0.169515 -0.198657 0.426380
0.145274 -0.150053 0.454290
-0.483625 -0.080321 -0.098263
0.083074 -0.392023 -0.299027
-0.270233 0.419379 -0.033093
-0.045399 0.455339 0.201508
0.413311 -0.029204 -0.279859
-0.497293 0.049034 0.017183
-0.199847 -0.100903 -0.447079
0.490767 -0.020630 -0.093390
-0.466586 -0.100422 0.149039
-0.476962 -0.143130 -0.044955
-0.269459 0.380860 0.179827
0.160131 -0.143450 -0.451420
0.076800 -0.483128 -0.103387
0.103057 0.485459 0.060902
-0.037955 0.475678 0.149296
-0.059686 0.474216 0.146823
-0.039584 0.308855 -0.391205
-0.314689 -0.115238 0.371068
0.467584 0.079668 -0.158171
-0.102423 -0.062653 -0.485370
-0.481108 0.077903 -0.111652
0.495976 0.005888 0.063033
0.426274 -0.245991 -0.088198
-0.459159 0.193384 0.042137
0.094711 -0.490060 0.029514
0.479946 0.052409 0.130021
0.081303 -0.239792 -0.431149
0.306220 0.266165 -0.292208
-0.274267 -0.292961 -0.298247
0.192583 0.442169 0.131902
0.226400 -0.427527 0.126345
0.130474 0.110471 -0.469864
-0.183219 0.226385 0.406425
0.121828 -0.455924 0.165201
0.418389 -0.092963 -0.257505
-0.270216 -0.017076 0.420347
0.078156 0.488585 0.071946
-0.311496 0.176658 -0.348944
0.267010 0.167927 -0.387951
-0.176087 -0.304932 -0.354979
0.046154 -0.497815 -0.007107
-0.429245 -0.162834 0.198075
-0.454970 -0.205876 0.024850
-0.051062 0.434569 0.241956
-0.444952 -0.143089 -0.177603
0.495842 -0.051349 -0.038777
-0.460484 0.084307 -0.175634
0.439133 0.019994 -0.238249
-0.290348 0.372853 0.163336
0.105070 0.487682 -0.033565
0.411728 -0.209232 -0.191578
-0.080141 0.479995 -0.114812
-0.396872 -0.223202 0.206575
-0.212203 0.451095 0.038512
0.488211 0.033657 0.102551
0.261520 -0.415910 0.092878
-0.054681 -0.496988 0.003576
0.023220 0.233993 -0.441258
0.392576 0.284810 0.121520
-0.214234 -0.308279 -0.330255
-0.134441 -0.052894 -0.478673
-0.265924 0.258852 -0.335082
0.130450 0.157391 -0.456301
0.161836 -0.434205 0.187816
-0.270253 0.090372 0.410848
-0.256367 0.429274 -0.000346
0.410698 -0.060012 -0.278793
-0.093390 0.414135 0.264142
-0.455006 0.179091 0.104385
-0.425796 0.159874 -0.207696
-0.279198 -0.353665 0.216725
-0.253010 -0.308675 -0.301174
0.498244 0.028519 0.030658
-0.052941 0.057736 -0.493826
0.018114 -0.123196 0.484246
-0.305390 0.113928 0.379153
0.395431 0.210646 0.221951
-0.026421 -0.245627 -0.434706
0.433546 -0.175434 0.176807
0.160458 -0.044794 -0.471431
0.329889 0.237555 0.291102
0.274058 -0.416929 0.032586
-0.218762 -0.447144 -0.046964
-0.343996 -0.032857 -0.361368
-0.256612 -0.420845 -0.083904
-0.085507 0.491742 -0.029631
-0.486353 -0.093311 -0.068945
0.235195 0.252762 -0.361655
0.462364 0.044809 0.184963
0.196893 0.181211 0.422369
0.195130 -0.179763 0.423804
0.099094 0.321915 0.369528
0.333404 -0.196079 0.316851
-0.232485 -0.428977 0.109220
-0.281455 -0.229441 -0.343715
0.196233 0.348003 -0.300643
-0.043985 0.308652 0.390896
0.009646 -0.450764 -0.216144
-0.011040 0.006020 0.499842
0.372906 -0.322185 -0.084487
0.059398 -0.119266 -0.481921
-0.292983 -0.400136 0.063655
0.035340 -0.498464 -0.016869
-0.405215 0.025211 -0.291831
0.258354 0.085165 -0.419524
0.264759 -0.136366 -0.401630
0.197421 0.431778 0.156822
0.202266 -0.326497 -0.320138
-0.487147 -0.063540 0.093008
-0.141459 0.335518 0.342662
-0.289427 0.085396 -0.398673
-0.337996 -0.325493 -0.172663
-0.153319 0.472449 0.057318
0.237244 0.016244 0.439831
0.405630 0.020783 -0.291602
-0.138242 0.192112 0.440434
-0.241120 0.251355 -0.358722
0.008728 0.499693 0.015186
-0.233058 -0.122526 0.425055
-0.146455 0.471200 -0.080757
-0.199435 -0.170658 0.425561
0.163387 0.345571 0.322313
-0.184241 0.394014 -0.246593
0.390123 0.199198 -0.241089
0.294327 0.031036 0.402999
0.124567 0.388296 0.289326
-0.173443 -0.460388 -0.089220
-0.320780 0.301420 0.237162
0.307012 -0.331819 -0.213635
-0.451610 -0.176580 -0.121932
-0.020564 0.430938 -0.252725
0.332796 0.323510 0.185979
-0.254109 0.296593 -0.312188
-0.300191 0.052873 -0.396345
-0.308411 -0.196675 0.340883
-0.316204 -0.062315 0.382272
-0.410801 0.212316 0.190170
-0.487376 -0.110147 0.018224
-0.105089 -0.174243 -0.456723
0.115821 -0.038522 -0.484873
0.129888 -0.482631 0.014015
0.344634 0.339413 0.126594
0.255709 0.017388 0.429314
0.180288 0.405345 -0.230634
0.041135 -0.258520 0.425999
-0.072039 -0.001295 0.494781
0.017278 -0.454725 0.207187
-0.261578 -0.122120 0.408245
0.417572 0.070582 0.265804
-0.132839 -0.396660 0.273888
0.112659 0.387219 0.295583
-0.412115 0.092320 -0.267653
-0.048163 0.258359 0.425360
0.096329 0.394824 -0.291264
-0.430426 0.094393 0.236269
0.138095 -0.166487 -0.450790
0.048467 0.010428 0.497536
-0.369382 0.086311 0.325742
-0.364240 -0.158958 -0.303416
-0.084104 -0.103604 -0.481864
-0.259618 0.411119 0.116530
0.179687 0.432941 0.173995
0.176401 0.247854 0.396801
-0.266560 0.050240 0.420026
-0.403067 -0.168140 -0.243446
-0.249968 0.026274 -0.432234
0.231054 0.435673 -0.082479
-0.370315 0.335781 0.010839
0.476880 -0.140921 -0.052214
0.065683 0.023503 0.495109
-0.189362 0.130641 -0.443931
0.146881 -0.322815 -0.352443
0.326784 -0.161834 0.342084
0.448716 0.219701 -0.019630
-0.419088 -0.056183 -0.266850
-0.058299 0.392483 -0.304234
-0.000954 -0.341380 0.365320
0.126490 -0.419578 0.240737
0.100742 0.489491 -0.015810
-0.352544 0.002735 0.354549
0.097167 0.039488 0.488875
0.405698 -0.032715 0.290411
0.266700 -0.372153 -0.200932
0.228715 -0.205509 0.394279
-0.192723 -0.443993 -0.125410
0.309703 -0.350137 -0.177449
0.350967 0.141413 -0.326840
0.297387 -0.389595 -0.098877
0.038845 0.495406 -0.055357
-0.379841 0.310865 0.095309
-0.402442 -0.078082 -0.286258
-0.028914 -0.239602 -0.437898
0.145683 0.474777 0.057990
0.352540 -0.190155 0.299260
0.462700 0.179275 0.061395
0.287425 -0.245700 -0.327137
-0.471194 0.040499 -0.162285
-0.095683 0.289039 0.396612
-0.018480 -0.348907 -0.357662
0.402642 -0.259739 -0.142881
0.483619 0.105951 0.069906
-0.498004 -0.012002 0.042989
0.103443 0.412083 -0.263604
-0.356596 -0.346381 0.053475
-0.283844 0.324254 -0.253558
-0.462127 -0.173737 -0.079083
0.158115 -0.326518 0.344072
-0.478226 0.135758 0.053566
-0.211374 -0.429882 -0.143257
-0.389167 0.312643 -0.028341
0.434650 0.241329 -0.053288
-0.398766 0.233663 0.190755
-0.027836 0.499051 -0.013152
0.328083 0.032889 -0.375872
0.102774 0.482419 0.081912
0.371812 -0.318008 0.103085
0.329790 -0.200999 0.317550
-0.354408 0.328764 -0.127707
0.257776 0.355556 -0.239022
0.267450 0.143775 -0.397240
-0.035603 0.309307 0.391231
0.115142 -0.006727 -0.486515
0.360845 0.162903 0.305375
0.314806 -0.364101 -0.135379
0.025771 0.471640 -0.163987
-0.352513 0.111804 0.336503
-0.351269 -0.158682 -0.318481
0.331324 0.374466 -0.000355
0.041354 -0.305960 -0.393292
0.391670 -0.072847 -0.302138
0.367366 0.238520 0.241144
-0.370440 0.231567 0.243210
0.378782 0.320566 -0.061335
-0.423852 0.260882 0.047856
0.232514 -0.268332 0.352044
-0.413172 0.188420 0.209253
0.244408 -0.300814 0.315873
0.381406 -0.295939 0.130192
0.275899 -0.332860 -0.251166
-0.452543 0.079626 0.197141
-0.383877 0.209084 0.242739
-0.078208 0.193654 -0.454293
0.117945 0.236463 -0.424469
0.399638 0.287289 -0.088059
-0.398346 0.182245 0.241055
0.449122 0.210781 0.062131
0.351381 0.347689 -0.075122
0.176897 -0.138791 -0.446592
-0.400796 0.136157 -0.266128
-0.319574 -0.384238 0.015267
0.179124 -0.458076 0.089892
0.443691 -0.227605 0.036524
-0.049232 0.271732 -0.416819
0.370362 0.283464 -0.180222
-0.097569 -0.411370 -0.266936
0.458002 0.154326 -0.128133
-0.414872 -0.057732 -0.273035
0.293262 0.200776 -0.351691
-0.016507 0.319864 -0.383946
-0.037489 0.086768 -0.490985
0.393212 -0.267202 -0.154878
-0.355286 0.002882 -0.351800
-0.441175 0.062451 -0.226858
0.120203 -0.411775 0.256889
-0.119618 0.179978 -0.450887
-0.058042 0.037685 0.495188
-0.116903 0.380480 0.302603
-0.353222 -0.012746 0.353655
-0.174128 0.082443 -0.461392
-0.132769 -0.293379 0.382493
0.042777 -0.494378 0.061320
0.355559 -0.334782 0.107231
-0.109297 -0.479470 -0.090347
0.140940 -0.318029 -0.359156
-0.301394 0.055073 -0.395131
0.461956 -0.188872 -0.030393
0.246753 0.253653 -0.353233
0.061081 -0.478259 0.132428
0.079397 -0.471815 -0.145213
0.120240 -0.337404 0.348856
0.433210 -0.173818 -0.179211
0.202247 0.033952 0.456008
-0.172099 0.194423 0.427296
-0.318536 -0.013062 0.385181
-0.214675 -0.423231 0.157450
0.370881 0.294045 0.161200
0.127359 0.072145 -0.478095
0.406915 0.267088 -0.114384
0.498427 0.033462 -0.021225
-0.370837 0.167674 0.290458
-0.289363 0.407647 0.009631
-0.147731 0.453044 0.151417
-0.279515 -0.414563 -0.002994
0.258180 -0.354328 0.240406
-0.234300 0.043907 0.439518
0.090734 -0.218334 -0.440565
-0.010610 0.051469 -0.497231
-0.049078 0.026570 0.496876
-0.023627 0.499437 -0.002168
0.127193 -0.308619 -0.372259
0.126669 -0.479953 -0.059998
0.054348 -0.112553 0.484126
0.179778 0.176430 0.431917
-0.456799 0.150684 -0.136488
0.110941 0.275557 0.402195
0.234045 -0.184885 0.401299
0.149519 0.001758 -0.477117
-0.302722 -0.269724 0.292589
-0.217536 -0.304209 0.331866
0.233023 0.001669 0.442377
0.174610 -0.432534 0.180072
-0.040464 -0.135028 0.479719
0.460887 -0.089145 0.172153
-0.481299 0.027386 -0.132668
0.173753 -0.261733 -0.388980
0.369332 0.266842 0.205885
0.278380 0.408705 -0.073925
-0.423512 -0.171815 -0.202774
-0.311418 -0.178985 -0.347827
0.481295 0.131769 -0.031498
-0.422380 -0.160320 0.214225
0.243009 0.317232 -0.300516
-0.184106 -0.438753 -0.153625
-0.189272 0.354002 -0.298092
-0.201812 0.135871 -0.436819
0.247610 0.377121 0.215568
-0.004625 -0.466100 0.180914
0.121150 -0.288326 -0.390117
-0.318351 0.352384 -0.156456
0.204754 0.090914 0.447002
-0.182411 0.425854 -0.188081
-0.446134 -0.135504 0.180565
-0.299595 0.314344 0.247852
0.124200 0.412802 -0.253315
0.131162 0.372480 -0.306684
-0.239008 -0.082309 -0.431393
-0.156724 0.309280 -0.360255
0.184326 0.382455 0.264106
0.203874 -0.385325 -0.244868
-0.019129 -0.085110 0.492332
0.148139 0.427816 -0.212199
0.338716 0.316739 0.186944
-0.212391 -0.100661 -0.441313
0.396943 -0.274515 -0.130682
0.019287 -0.481394 0.133746
-0.481329 -0.133361 -0.023179
0.209836 -0.397681 -0.218675
-0.411492 0.223681 -0.175046
-0.198538 -0.424871 0.173399
0.244233 0.010313 -0.436169
-0.351170 0.355521 0.016855
-0.304906 -0.155431 0.364518
-0.232195 -0.067127 -0.437698
-0.318014 -0.167272 0.347688
0.468982 0.114458 0.130212
0.293094 0.096088 -0.393527
0.240300 -0.086983 0.429756
-0.366543 0.187714 0.283566
0.004144 0.091466 0.491545
0.312495 0.191598 0.340054
0.343098 0.106333 0.347818
-0.240645 0.037361 -0.436685
0.355348 -0.074455 0.343780
-0.461103 0.027893 -0.191327
0.472212 -0.152397 -0.061574
0.480787 0.127800 0.050113
-0.208370 -0.445098 -0.092031
-0.070345 0.476715 0.133397
-0.010905 0.495476 -0.066216
-0.349242 -0.129751 0.333459
0.109222 0.098824 0.477812
0.123829 -0.156854 -0.458326
0.484398 0.101529 0.071069
0.054354 -0.294885 0.400110
0.210025 -0.453676 0.008210
-0.495229 0.053014 -0.044016
0.082839 -0.148845 -0.470088
0.089087 0.455735 -0.185389
-0.048853 -0.389816 -0.309285
0.437028 0.171102 0.172424
