ply
format ascii 1.0
element vertex 1000
property float x
property float y
property float z
end_header
0.191019 0.428585 0.172703
0.131880 -0.030042 0.481358
0.128048 -0.410729 -0.254766
-0.098297 0.273134 -0.407106
-0.318440 -0.345249 0.171461
0.024858 -0.303109 0.396872
-0.082564 -0.113506 0.479895
0.181885 -0.296992 0.358767
0.041148 -0.027799 -0.497528
-0.059870 -0.269569 0.416831
0.268406 0.412534 0.088171
-0.409506 -0.283812 0.041897
0.258808 0.351903 0.243274
0.473253 0.160445 0.017003
0.436289 0.199489 0.140910
-0.472141 -0.071635 -0.148158
-0.349203 0.355466 -0.041247
-0.415647 0.044351 0.274354
0.235818 0.421967 -0.127804
-0.371178 0.109003 0.316773
0.167055 0.183776 -0.433957
0.064593 0.246218 0.430354
0.023884 -0.342330 -0.363648
-0.023166 0.200205 -0.457582
-0.243350 -0.285221 -0.330802
-0.486890 -0.100227 -0.053785
-0.494509 0.002047 0.073867
-0.041178 0.118258 0.484065
-0.352543 0.321324 0.149881
0.207944 0.269552 0.366198
-0.359767 -0.176090 0.299266
-0.383495 -0.277398 -0.161191
0.223232 -0.132156 -0.427437
-0.140476 -0.378568 -0.294877
-0.375982 -0.093629 -0.316024
-0.106583 0.180850 -0.453799
0.131699 -0.476083 0.077460
-0.363935 0.326959 0.103198
-0.151319 0.358722 -0.313721
-0.388964 0.283275 0.135876
-0.414470 0.239964 0.143640
-0.202786 -0.453619 -0.055743
0.054084 -0.496241 0.028634
0.326148 0.378929 -0.006338
-0.235144 -0.166963 0.408449
0.012770 0.061186 -0.496078
0.355986 0.163697 -0.310608
-0.389905 -0.303760 -0.075524
-0.262789 -0.131499 -0.404536
0.334246 -0.090297 -0.360730
-0.384979 -0.155980 -0.278318
-0.408819 0.106835 0.267308
0.321691 0.373375 -0.084300
0.414550 -0.239226 -0.144634
0.322235 -0.318048 0.212157
0.360782 -0.101379 0.330997
0.395272 0.112049 0.284965
-0.156605 -0.394207 -0.264719
0.171645 -0.423190 -0.203588
0.349627 0.264959 0.239912
-0.256168 0.417804 0.099087
0.111283 -0.401275 0.276757
0.155603 0.351426 0.319825
0.446230 -0.222471 0.037217
0.338660 -0.097949 -0.354563
-0.491508 0.066072 -0.063673
-0.214865 -0.419177 0.167701
-0.197692 -0.166738 -0.427921
0.007142 -0.389956 -0.312863
-0.002966 0.191450 -0.461885
0.462855 0.008535 -0.188925
0.255010 -0.334382 -0.270479
0.356380 0.275401 0.217134
-0.217631 0.385302 -0.232765
0.153393 0.329321 -0.343538
0.062196 0.494788 0.036284
0.025746 -0.395744 -0.304506
-0.332485 -0.125200 0.351822
0.029101 0.421327 -0.267651
0.175697 -0.456908 -0.101811
-0.060166 0.239591 0.434714
-0.443736 -0.042900 0.226403
0.393448 -0.152297 0.268337
-0.223547 0.444342 -0.050856
-0.111842 -0.478992 0.089765
0.148811 0.378135 -0.291323
0.453153 0.096786 -0.187842
0.466514 -0.020622 0.178716
0.435505 0.149764 -0.194695
-0.173819 0.466873 -0.042623
0.482644 0.093513 0.091162
-0.268771 0.402829 -0.124463
-0.235179 0.384062 -0.217226
0.410284 0.216904 -0.186063
0.458184 -0.193831 0.049974
0.268448 0.371881 0.199098
0.154508 -0.151660 0.450696
-0.377135 -0.116115 -0.307061
0.016643 0.497069 0.051433
-0.304490 -0.394406 0.041585
0.495832 0.064150 0.005986
-0.070604 0.112962 0.481928
0.027146 -0.450857 0.214455
-0.316361 -0.314687 -0.225584
0.279773 0.193832 0.366274
-0.019108 0.391793 0.310054
0.429005 -0.129290 0.221899
0.080823 -0.428421 -0.244793
-0.014514 0.479724 0.140194
-0.181302 0.287007 0.367092
0.049233 0.381891 -0.318960
-0.466921 0.172909 -0.045687
-0.390330 -0.054362 -0.307713
0.442496 0.071029 0.221702
-0.487278 -0.086456 0.071313
0.083129 -0.007256 0.492988
0.138115 -0.348782 0.330568
-0.274998 -0.394648 0.136488
0.081975 0.369468 0.326762
-0.148936 -0.372304 -0.298676
-0.411898 0.035881 -0.281163
0.265283 0.253482 -0.339664
-0.482035 0.084471 -0.102501
-0.498375 0.034208 0.021275
0.071631 -0.355599 -0.344120
0.386124 -0.271005 0.165724
-0.018734 -0.431708 -0.251549
-0.477796 0.038365 0.142263
0.273428 -0.202894 0.366158
0.214947 0.436746 0.114239
0.066084 -0.084316 -0.488389
0.419721 0.163104 -0.217328
-0.080469 -0.436759 -0.229710
-0.353858 -0.096493 0.339815
-0.052366 0.497198 -0.007201
-0.023312 -0.000849 0.499456
0.360459 -0.237312 -0.252493
-0.403966 -0.018961 0.294028
-0.393411 -0.249612 0.181443
0.255990 0.429243 0.014836
0.178664 -0.449761 -0.125676
0.159757 -0.000537 -0.473790
-0.246287 0.306202 0.309165
-0.078444 0.448498 -0.206629
0.441430 0.070471 0.223995
-0.326213 0.196962 0.323714
0.259093 -0.026779 -0.426795
-0.289449 0.065174 0.402457
0.119286 -0.092484 -0.476673
-0.002838 -0.285036 -0.410788
-0.097251 0.189734 0.452265
0.196451 -0.169867 -0.427262
0.363658 0.163123 -0.301901
0.092812 0.292543 0.394721
-0.378462 -0.323046 0.049071
0.251886 -0.306818 0.304000
-0.127350 -0.258284 -0.408743
-0.263261 0.030766 -0.423966
0.207329 0.231548 -0.391664
0.351097 0.354560 0.031909
0.005726 -0.052853 -0.497166
-0.440640 0.225877 -0.069395
0.230751 -0.014250 0.443340
0.495267 0.066859 0.015496
0.096107 -0.404718 -0.277428
-0.004601 -0.251440 0.432154
-0.138471 0.118595 0.465576
0.408511 -0.053049 0.283381
0.072767 -0.465513 -0.167339
-0.009466 0.293869 -0.404415
0.263203 0.254477 -0.340537
-0.431883 0.170511 0.185481
-0.492413 -0.070968 -0.049926
0.287737 0.089070 -0.399091
-0.091964 -0.408474 0.273298
0.187697 0.277645 0.371056
0.309578 -0.386860 -0.067088
-0.395415 -0.102614 0.288300
-0.417613 -0.171221 -0.215134
-0.168058 -0.276681 0.381057
-0.366922 -0.315045 0.126944
-0.407281 -0.012785 -0.289756
-0.325819 -0.129004 -0.356651
0.095779 -0.486379 -0.065280
0.286643 0.167237 -0.373989
-0.008796 0.470044 -0.170238
0.042538 -0.373632 0.329530
0.331882 0.366115 -0.076252
0.011648 0.352747 -0.354167
-0.111596 -0.486207 0.033894
0.049886 -0.329510 0.372740
0.244861 -0.330060 0.284787
0.489707 -0.088999 0.047601
0.303013 0.013969 0.397477
0.308962 -0.340328 0.196774
0.354746 0.149597 -0.319023
0.042879 0.341557 0.362630
-0.100878 -0.366615 0.324680
-0.386470 0.262774 -0.177738
0.287902 0.196041 -0.358720
-0.092776 0.176552 0.458500
-0.124741 -0.295045 -0.383912
0.211516 -0.339071 -0.300487
0.294632 0.132562 -0.381601
-0.164716 -0.134182 -0.452619
-0.426004 0.257474 0.047201
0.183964 0.375859 -0.273655
-0.258918 0.295274 0.309475
0.105973 -0.122449 0.473049
-0.185602 -0.241438 0.396560
-0.495627 0.064044 -0.015883
-0.102794 0.402315 -0.278524
-0.199911 -0.303336 0.343544
-0.440463 0.133233 -0.195553
-0.240938 -0.016969 0.437791
-0.011227 0.038247 0.498409
-0.160393 0.288374 -0.375652
0.003851 -0.494009 0.077076
-0.022901 -0.499163 -0.017664
0.119770 0.368517 -0.315991
0.111471 -0.460621 -0.159383
0.304663 -0.316925 0.238198
0.157438 -0.431405 0.197745
0.020397 0.301353 -0.398460
0.350718 0.021732 -0.355703
-0.140235 -0.473492 0.078352
0.366994 0.313213 -0.131196
-0.422316 -0.195781 -0.182534
0.272459 -0.103782 -0.406196
-0.429071 -0.251860 0.049645
0.435363 -0.065116 0.237105
-0.374255 0.166517 0.286715
-0.446018 0.024319 -0.224670
-0.309046 0.388940 -0.056708
-0.046038 -0.493227 -0.067883
0.230089 0.443836 0.008253
0.121155 -0.182616 0.449414
0.345287 -0.044573 -0.358873
-0.111527 0.481223 -0.077371
0.052972 0.446911 0.217864
-0.070148 0.088363 0.487105
0.185006 -0.429302 -0.177405
0.491180 -0.067092 0.065126
-0.230471 0.406403 -0.178101
0.382624 -0.298729 -0.119831
-0.026731 0.024403 0.498688
-0.055212 -0.491455 -0.073649
0.467200 -0.143377 -0.105673
-0.456222 0.204383 -0.009449
-0.224658 0.446668 -0.004009
-0.053237 -0.450309 0.210685
0.004278 -0.487988 0.108857
-0.413633 -0.261914 -0.101532
-0.044653 0.021393 -0.497542
0.320328 0.278353 -0.264405
0.110410 -0.425354 -0.238504
0.086849 0.027854 -0.491611
0.288334 -0.405294 0.050990
0.446505 0.199800 0.103503
0.494476 0.063474 0.038270
0.378604 0.185454 0.268823
0.478132 0.095096 0.111115
-0.470304 -0.078354 -0.150581
0.176129 -0.226563 -0.409448
0.230278 0.146481 0.418945
-0.013495 0.455290 -0.206225
0.426175 0.260547 0.022125
-0.383159 -0.320551 -0.020877
0.457502 0.190058 -0.067603
-0.044593 -0.035238 -0.496759
-0.002935 0.182618 -0.465448
0.316267 0.362380 0.136588
0.461951 0.056463 0.182792
0.093388 -0.489889 0.035875
-0.286701 -0.406164 0.053224
-0.274803 -0.298077 -0.292632
0.086217 0.374890 0.319412
-0.430401 -0.209342 -0.144673
0.271050 0.419732 0.018886
-0.471530 -0.163329 0.031358
-0.301419 -0.252183 0.309112
-0.080077 -0.493127 -0.020333
-0.303012 0.311002 -0.247914
0.099522 -0.096147 0.480470
0.256575 -0.391450 -0.175886
0.458060 0.197916 -0.031789
-0.025652 -0.431036 0.252090
0.336915 -0.279712 0.241350
0.461168 0.164547 0.101233
-0.127146 0.483427 0.011490
0.053485 0.253705 0.427520
0.077656 -0.040529 -0.492267
0.124318 -0.479249 0.069751
-0.146474 0.446996 -0.169530
0.135089 0.316946 -0.362348
-0.158752 0.465908 -0.087905
0.373447 -0.022056 -0.331739
-0.460847 0.112719 0.157844
0.147736 -0.291668 0.378291
0.424612 -0.207020 0.163852
-0.499302 -0.018648 0.018702
0.241064 0.383019 -0.212566
-0.076267 -0.494125 0.004851
-0.479410 -0.030630 -0.138665
0.336393 0.135782 0.344098
0.395662 -0.304573 0.026217
-0.022320 0.273498 0.417972
-0.035501 0.495814 -0.053924
-0.152416 -0.110374 0.463235
0.184615 -0.460600 0.061358
0.192168 0.401299 0.228102
0.483270 -0.107924 -0.069298
0.356976 0.348500 0.033400
0.357773 0.046235 0.346209
0.251357 -0.428136 0.059322
0.426965 0.226732 0.127646
0.395342 0.292480 -0.090335
-0.174407 -0.376414 0.279097
-0.030126 0.036354 -0.497766
-0.091762 -0.316568 0.375984
-0.161299 -0.472624 0.024675
-0.241049 -0.437889 -0.012196
-0.118492 0.441121 -0.203400
0.350342 -0.339564 -0.109349
0.016045 0.199825 -0.458053
0.269611 -0.249904 -0.338907
-0.143163 0.473135 0.075153
0.383707 0.007387 0.320490
-0.197468 0.455514 0.059275
-0.048970 -0.476266 0.144127
0.156064 0.356244 -0.314221
0.177857 -0.115766 0.452731
0.405787 0.057149 0.286480
-0.334724 -0.121642 0.350945
0.220707 0.427221 0.137005
-0.069176 0.473011 -0.146544
-0.125545 0.072618 -0.478503
-0.250856 0.176811 0.394727
-0.140665 0.063161 0.475630
-0.269945 0.228512 0.353429
0.477830 -0.029824 -0.144186
-0.401271 -0.225555 0.195208
-0.306533 -0.259086 -0.298181
-0.128117 -0.309248 -0.371419
0.159977 0.471243 0.048344
-0.304354 0.391109 -0.066350
0.325543 0.310548 0.218132
0.463399 -0.126493 -0.138783
-0.094903 0.485186 -0.074753
0.226452 0.323170 0.307052
0.337390 0.362714 -0.067870
0.100531 -0.417539 -0.256036
-0.346040 0.021170 0.360289
-0.144004 0.380533 0.290616
0.381511 -0.175028 -0.271688
0.440321 0.043303 0.232900
-0.426733 -0.258274 0.034540
0.097117 -0.132176 -0.472332
-0.333600 0.012691 0.372223
-0.043769 -0.419319 -0.268805
-0.493675 0.060058 0.051747
0.281791 0.377219 0.168225
-0.263429 0.168031 0.390347
-0.211199 -0.440811 0.105265
0.289876 -0.291866 0.284230
-0.074816 -0.235239 0.434816
0.308945 -0.391744 -0.033004
0.239468 -0.255574 -0.356843
-0.194118 0.323607 -0.328019
-0.013481 -0.462957 0.188386
0.118613 -0.196380 0.444259
0.177005 0.431616 -0.179936
-0.233288 0.285764 -0.337514
-0.130115 -0.178311 0.448637
-0.487466 -0.057142 0.095456
-0.262339 -0.400628 0.143790
-0.288714 0.338361 -0.228377
0.204700 -0.369096 0.268078
0.337152 0.326068 -0.173229
0.092445 0.081867 0.484512
0.445329 -0.198459 0.110889
0.199037 -0.155897 -0.431370
-0.079271 0.393390 -0.298263
0.342671 -0.337253 0.137249
0.169217 -0.069048 0.465401
0.221826 -0.405321 0.191070
0.091235 0.482203 -0.095690
-0.321797 -0.336763 -0.181761
0.190229 0.445281 -0.124650
0.425233 -0.253018 0.071828
-0.261982 -0.403726 -0.135538
0.107067 0.483892 -0.066221
0.411956 0.256150 0.121158
-0.254087 -0.357747 -0.239702
0.498507 -0.037202 0.010322
-0.057155 0.309904 0.388192
-0.368900 -0.311744 0.129337
-0.316998 0.270397 0.276401
0.441288 0.214109 -0.097065
-0.157368 0.346075 0.324758
0.113564 -0.286684 0.393593
0.449097 0.067898 0.209050
-0.146557 0.324168 0.351335
0.078612 0.202708 0.450255
-0.409491 0.093667 0.271189
-0.105160 -0.192752 0.449208
-0.467679 -0.079917 0.157764
-0.032758 -0.131564 -0.481267
-0.092169 0.343867 0.351085
0.086788 0.090235 0.484072
0.024212 0.264770 -0.423451
-0.469417 -0.145554 -0.091986
-0.192639 0.191747 0.419670
-0.063510 0.495179 0.027644
-0.351830 -0.302722 0.185944
0.465243 0.092349 0.158180
0.228870 0.390101 0.213167
0.444069 0.222911 -0.055798
-0.192842 -0.147869 0.436975
0.313237 -0.389700 -0.004015
0.352029 -0.287422 0.208479
-0.209453 0.372343 0.259789
-0.398223 0.093475 -0.287543
0.142826 -0.429170 -0.213106
0.308494 -0.328779 0.216185
0.306100 0.281576 0.277521
-0.222598 0.400580 -0.199965
0.306163 0.394341 0.027556
0.485538 0.118471 0.014752
0.031833 0.201493 -0.456494
0.021490 0.240552 -0.437805
0.046000 -0.497874 0.002315
-0.195671 0.434402 0.151684
0.121951 0.431542 -0.221133
0.081597 -0.482532 -0.102493
-0.276041 0.400369 0.116215
-0.172786 -0.424082 -0.200746
-0.300312 0.327221 -0.229649
0.478861 0.034881 0.139555
-0.330440 0.307460 -0.215122
-0.145911 -0.442542 -0.181291
0.250556 0.318812 -0.292542
-0.387490 0.154712 -0.275528
-0.096501 0.109059 -0.478324
-0.411472 0.198450 0.203245
0.108561 -0.387587 0.296633
-0.123234 -0.415377 -0.249550
0.389145 0.102247 0.296836
-0.393871 0.111449 -0.287132
0.188357 0.462084 0.031629
0.333570 0.182500 0.324692
-0.092798 -0.491118 -0.013841
0.465203 0.087272 0.161150
-0.186418 0.241143 -0.396356
-0.400355 -0.204166 -0.219162
-0.028293 0.388609 0.313341
0.224673 0.180526 -0.408573
-0.264853 -0.415922 0.082837
0.207340 -0.410707 -0.195781
-0.211727 0.106381 -0.440289
-0.069940 0.076441 -0.489147
-0.122434 0.288719 -0.389424
0.157084 0.174672 -0.441378
0.426222 -0.192768 -0.176565
0.081039 -0.437215 -0.228638
0.468920 -0.168654 0.040865
0.433573 -0.206547 0.139113
0.199646 -0.421361 -0.180545
0.303315 -0.343477 -0.200059
0.475409 -0.147321 0.047779
-0.157697 -0.471299 0.054856
-0.494319 -0.008580 -0.074668
0.308907 0.108232 0.377972
0.489685 -0.061327 0.080298
-0.291924 0.394817 -0.094338
0.310546 -0.246180 -0.304888
-0.067520 0.458606 0.187408
-0.130090 0.434647 0.210140
-0.347736 -0.288447 -0.214191
0.458961 0.002037 0.198371
0.331621 0.365917 -0.078308
0.041500 -0.384596 0.316802
-0.473780 -0.143716 0.069844
-0.418339 -0.176445 -0.209427
-0.117937 0.443972 -0.197433
0.016284 -0.188007 -0.463021
0.463096 0.049526 0.181903
0.345325 0.324680 -0.159163
0.257274 0.300709 -0.305588
0.120775 0.485154 0.006277
0.457756 -0.000908 -0.201143
0.333836 -0.370117 0.039587
-0.147445 0.036840 0.476343
-0.485291 -0.031395 -0.116218
-0.234288 0.404296 0.177915
-0.491054 -0.015066 -0.092945
-0.461253 0.116970 -0.153505
0.374148 -0.254471 -0.212738
0.278138 0.413104 0.044552
-0.363816 0.312641 0.141046
0.396589 -0.224164 -0.206078
-0.253466 -0.427165 -0.057313
0.001745 0.394133 0.307663
0.243908 0.311854 0.305378
0.086037 -0.053145 -0.489666
0.408492 -0.114373 0.264675
0.258457 0.240635 0.353970
-0.397311 0.302006 0.030607
-0.383773 -0.174361 0.268918
0.199542 0.073774 0.452482
0.103345 -0.321918 0.368359
-0.185351 0.405876 0.225632
-0.264107 -0.372979 0.202816
-0.122728 0.199330 0.441821
0.111866 -0.114854 -0.473597
-0.195920 -0.445162 0.115960
0.168721 0.249677 0.398992
-0.029578 -0.387407 -0.314708
-0.360132 -0.112169 -0.328212
0.048079 0.211208 -0.450643
-0.278564 0.365085 0.197776
0.460023 0.181988 -0.072521
0.316851 0.374916 0.095097
-0.066503 -0.399371 -0.293395
-0.357930 0.328032 -0.119506
-0.304552 0.083262 0.387705
-0.398073 -0.032073 -0.300848
-0.165231 0.425078 -0.204956
0.183198 0.032368 0.464102
-0.414608 0.020530 0.278708
-0.082894 0.065418 -0.488722
0.351309 0.351886 0.052519
-0.153099 -0.164435 0.446679
-0.191059 0.221693 -0.405400
0.025616 -0.412761 0.281020
0.020334 -0.290819 0.406215
0.114482 0.395813 0.283242
0.366358 -0.195323 0.278623
-0.215437 0.424001 0.154305
-0.466912 0.108242 -0.142397
0.331800 -0.171500 0.332410
0.096107 -0.134414 -0.471907
-0.054525 -0.385528 -0.313680
0.416673 0.256445 -0.103049
-0.076618 -0.493836 -0.015990
0.164053 -0.368974 0.294864
0.450578 -0.121460 0.179518
0.322864 0.375716 0.067794
0.350710 0.023100 -0.355625
-0.040084 0.040549 0.496738
-0.052977 0.125481 0.481091
0.292030 -0.360772 -0.185908
0.274273 -0.351285 0.226657
0.051305 0.493252 -0.063797
-0.185089 0.090974 0.455484
-0.405746 -0.259832 0.133632
0.485950 0.000773 -0.117696
-0.376363 0.193626 -0.266195
-0.099291 0.121703 0.474689
0.105573 0.459325 -0.166958
0.091916 -0.486679 0.068522
0.372466 -0.281356 -0.179186
-0.244647 0.284444 0.330514
0.439867 -0.225529 0.075195
0.347897 -0.075672 -0.351057
0.367573 -0.108904 -0.320982
0.241457 -0.162667 -0.406495
0.310578 -0.044542 -0.389303
0.193555 0.077003 -0.454540
-0.421986 -0.267226 -0.022760
-0.336554 0.156237 -0.335144
-0.207475 0.184009 -0.416047
-0.180771 0.463635 -0.048626
-0.093280 -0.003001 0.491213
0.413920 0.107782 0.258947
0.076458 -0.494058 0.007796
-0.034342 -0.475760 0.149911
-0.407630 -0.269704 0.105347
0.220087 0.296298 0.337297
0.050908 0.431461 -0.247486
0.163592 -0.208573 0.423952
0.198590 -0.057136 0.455299
-0.352354 -0.200801 0.292447
-0.156715 -0.190152 0.435066
0.239010 0.289325 -0.330402
-0.472852 0.144661 -0.074053
-0.365045 -0.289026 0.182226
0.191206 0.111227 0.448407
-0.187451 0.025336 -0.462839
0.496162 0.060423 -0.013132
-0.115879 -0.248224 0.418278
0.034133 0.445911 -0.223603
-0.341139 0.198556 -0.306920
0.099114 0.363733 0.328443
0.272291 -0.370458 -0.196515
-0.105589 -0.471448 0.128793
-0.008993 -0.393425 0.308442
-0.044405 -0.368516 0.334999
-0.245411 0.352373 0.256137
-0.361958 0.335428 0.080461
-0.131877 -0.167000 0.452459
-0.261844 0.183507 -0.384399
0.286614 -0.334149 -0.237058
-0.404165 -0.272459 -0.111431
-0.478318 0.145135 0.012170
0.068069 0.065762 0.490960
-0.202210 -0.422536 -0.174856
-0.352405 0.134224 -0.328321
-0.468410 0.159555 0.071657
0.250172 0.426827 0.072334
0.044142 0.183536 0.462997
-0.042142 0.230575 -0.441655
0.327335 -0.187591 0.328118
-0.388103 0.294590 -0.112217
0.224761 0.310559 0.320992
-0.045275 0.097493 -0.488309
0.027336 -0.395197 -0.305078
0.212261 0.410645 0.190567
-0.373188 -0.282867 -0.175262
-0.035934 0.267068 -0.421169
-0.488921 -0.005746 -0.104516
-0.130146 0.280897 -0.392631
0.489594 -0.099869 -0.017994
0.188430 0.295964 0.356229
0.459151 0.128930 -0.150191
0.483147 0.117124 -0.053391
0.150543 -0.475885 -0.029495
-0.038709 -0.169284 -0.468876
-0.348200 0.062541 0.353335
-0.310339 0.027695 0.391054
-0.147853 0.015508 0.477388
0.207444 0.282305 0.356750
0.339713 -0.348663 -0.114144
0.227316 -0.076292 0.438756
0.369493 -0.198199 0.272383
-0.420895 -0.254200 -0.090715
0.253352 -0.394800 0.173047
0.158562 0.342583 0.327864
0.351285 0.321723 0.151964
-0.418740 0.208438 -0.176666
-0.015407 -0.027948 0.498981
0.005627 0.496338 -0.060139
-0.316519 -0.134870 -0.362803
0.332299 0.360599 -0.097700
0.312348 0.308308 0.239552
-0.265752 0.109702 -0.409074
0.031783 -0.189542 -0.461588
-0.387143 0.314180 -0.037565
-0.071967 -0.480332 -0.118754
-0.055821 0.332700 0.369045
0.024780 -0.372273 0.332865
0.225338 -0.405544 0.186433
-0.012789 -0.440416 -0.236369
0.462075 -0.040424 0.186688
0.414038 0.122803 -0.251976
0.097690 -0.302730 0.385760
0.032108 -0.313405 -0.388261
-0.185941 0.040325 0.462385
-0.303458 -0.386969 0.090378
0.427792 0.236912 0.104243
0.357360 -0.105173 -0.333515
0.403691 -0.202100 0.214916
0.466156 0.172651 0.053763
0.105160 -0.369454 0.320070
-0.428095 -0.236213 0.104585
0.097105 0.348608 0.345026
0.377031 0.328398 -0.001521
-0.376445 -0.246365 -0.218159
-0.023706 0.482907 -0.127430
-0.193986 0.366629 0.279200
-0.249183 0.004215 -0.433463
-0.456797 0.001292 -0.203309
0.053101 0.458816 0.191490
-0.257030 -0.326363 0.278249
0.420326 0.250441 0.102982
-0.323104 -0.328406 -0.194302
0.360547 -0.305216 -0.163857
0.346202 0.352334 -0.077492
0.451764 -0.018949 0.213425
-0.069707 0.351307 -0.348890
0.492809 -0.030139 0.078937
0.281057 -0.351330 -0.218115
-0.196726 0.448147 0.102291
0.488524 0.043302 0.097309
0.276449 -0.405901 -0.093919
-0.465657 0.151513 0.101031
0.244908 0.324004 0.291619
0.079230 0.488941 0.068261
0.030820 -0.334672 0.370195
-0.157303 0.201828 0.429560
0.051226 -0.292201 0.402486
-0.271154 0.313511 0.279618
0.342160 -0.319246 0.176093
-0.205900 0.452835 -0.050453
-0.060642 -0.480956 -0.122489
0.026240 0.107443 0.487614
-0.472750 0.076797 -0.143561
-0.368185 0.134227 0.310521
0.346991 -0.352664 0.072286
-0.091307 -0.269328 0.411249
-0.417478 -0.240072 -0.134453
0.266093 0.245863 0.344595
0.244078 -0.356221 0.252056
0.262799 0.366847 -0.215313
-0.391915 0.133179 -0.280475
-0.289702 0.376029 -0.157084
-0.499757 -0.012722 0.008986
-0.047281 0.198965 -0.456265
-0.166309 -0.125008 0.454658
0.314463 0.011320 0.388568
-0.499700 -0.001619 -0.017250
-0.402819 -0.294881 0.027968
-0.159053 -0.401608 -0.251819
-0.389643 -0.129254 0.285433
0.478621 -0.042694 0.138201
0.238755 0.358409 -0.254046
0.424187 0.173688 0.199744
0.229499 0.419865 0.145064
0.265863 -0.356152 -0.229069
-0.305329 -0.156649 -0.363642
0.141273 0.119902 -0.464398
0.218851 0.037118 0.448025
-0.414034 -0.056069 -0.274650
0.115957 -0.336926 -0.350763
0.243755 -0.388721 0.198693
-0.218591 -0.446729 0.051493
-0.319957 -0.374972 -0.083808
0.433148 -0.110515 0.223984
0.121831 0.458255 0.158618
0.233349 0.228107 -0.378834
-0.431204 -0.252975 -0.008173
0.486209 0.075119 0.089209
-0.360533 0.299230 -0.174578
0.411159 0.233352 0.162774
-0.253658 0.245655 0.353993
-0.410124 0.219791 0.183003
0.219192 -0.444424 -0.066645
-0.369659 -0.224100 -0.251260
0.397483 -0.157614 -0.259163
-0.181164 0.018046 -0.465676
0.185007 0.073510 0.458660
0.021340 -0.431283 0.252070
-0.174256 -0.387973 0.262891
0.195544 -0.366812 0.277869
-0.177794 0.360508 -0.297361
-0.240978 0.363611 -0.244369
0.140214 0.373308 0.301630
-0.276373 -0.387217 -0.153885
-0.078234 -0.430370 0.242200
-0.379021 -0.326101 -0.001191
-0.076504 -0.491174 -0.053812
0.156212 0.059099 0.471280
-0.195107 0.357341 0.290243
0.212325 -0.415769 -0.179037
0.090449 0.458241 -0.178421
-0.480480 0.089972 0.105091
-0.100257 -0.006070 -0.489808
-0.134567 0.219508 -0.428612
0.196950 0.166379 -0.428403
-0.090056 -0.305482 -0.385449
-0.003471 0.499347 0.025310
-0.298254 0.287679 -0.279796
0.086257 -0.219236 -0.441016
0.182383 0.407407 -0.225290
0.426051 -0.022384 -0.260729
0.110930 -0.448136 0.192011
-0.228604 0.399205 -0.195897
-0.370382 -0.241283 0.233666
-0.248625 0.432225 -0.036977
-0.140362 -0.479891 -0.001757
-0.209490 0.450648 0.055048
-0.364351 0.015715 0.342055
-0.233975 0.325121 -0.299252
-0.254844 0.395759 0.168610
0.096314 0.200212 -0.447927
0.402069 -0.297221 -0.000749
-0.102090 0.074498 0.483764
-0.053092 -0.373350 -0.328315
-0.175612 0.153175 -0.442377
-0.116596 -0.118372 0.471586
-0.392953 -0.174108 -0.255488
-0.287176 0.074003 -0.402559
0.284001 0.087624 -0.402076
-0.328683 0.371164 -0.064840
-0.234985 0.338826 0.282805
0.096142 0.123164 -0.474960
-0.475481 0.153252 -0.020763
0.006722 0.472154 -0.164394
-0.354440 0.351426 -0.029533
0.446419 0.162783 0.155602
0.058521 -0.485274 0.105283
-0.128492 0.049637 0.480652
-0.276083 -0.028119 0.415918
0.142952 -0.064940 0.474708
-0.364922 0.335035 0.067700
-0.437484 -0.187309 -0.153372
-0.334151 -0.283056 -0.241293
0.240701 -0.427063 -0.098389
0.073729 -0.145928 0.472514
0.140561 0.021906 0.479336
0.212702 0.318820 -0.321111
0.403153 0.185686 0.230192
0.105650 -0.433297 -0.226034
0.091931 -0.084547 0.484149
0.054760 -0.332865 -0.369056
0.125504 0.479617 -0.064932
0.237670 -0.196157 -0.393745
-0.020474 0.499089 0.022151
0.220197 -0.380286 0.238528
0.216766 -0.253404 0.372557
-0.384752 -0.194477 0.253268
0.490559 0.065376 -0.071262
0.145606 0.432573 -0.204155
-0.159180 0.341607 0.328583
0.445223 -0.180571 -0.138456
0.371523 -0.151049 0.298588
0.330140 0.348837 0.138997
0.356609 0.121169 -0.328859
-0.454198 -0.183093 0.100903
0.140833 -0.118915 -0.464785
0.103300 0.331593 -0.359688
-0.133387 -0.413602 0.247268
0.145792 0.244922 -0.410802
-0.386441 0.217286 0.231193
-0.285287 0.374838 -0.167653
0.099629 -0.489540 0.020603
-0.083899 -0.212113 -0.444937
-0.043854 0.467184 0.172674
-0.387058 -0.314292 0.037509
-0.372949 -0.138821 0.302718
0.299023 0.300877 0.264685
0.145555 -0.201750 0.433717
0.260731 -0.335544 0.263495
-0.271571 -0.419811 0.002821
-0.096438 0.429463 0.237194
0.181079 -0.296317 0.359732
-0.211652 0.301016 -0.338516
0.432771 0.247584 -0.037572
0.325151 0.018967 0.379364
-0.241904 0.380810 -0.215559
-0.181605 -0.422964 0.195245
-0.339960 -0.327669 0.164501
0.440657 -0.106537 -0.210882
-0.437621 -0.234304 -0.059915
-0.078057 0.476193 0.130946
0.460279 -0.177348 0.081798
-0.255992 0.429426 0.007825
0.081226 0.156393 -0.467914
-0.055964 -0.390401 0.307335
-0.405392 0.000906 -0.292672
0.108016 0.301702 0.383808
-0.331655 -0.254673 -0.274129
-0.061687 0.493631 0.050228
-0.110718 -0.476582 -0.103008
-0.089199 -0.490471 -0.038488
0.382248 0.183014 0.265316
0.132218 -0.423592 0.230409
0.435902 -0.232192 0.077950
-0.011095 -0.278399 0.415176
0.414502 0.070388 0.270618
0.018800 0.449141 -0.218903
-0.282218 0.284048 0.299449
0.235074 0.414889 -0.150356
-0.403741 -0.074018 -0.285508
-0.434342 0.232391 -0.085683
0.005737 0.466676 0.179390
0.035362 -0.239022 -0.437742
-0.198422 -0.447416 -0.102211
-0.484601 0.068014 -0.102647
0.331120 -0.363749 -0.089701
-0.018219 -0.256429 0.428850
-0.393149 -0.305709 -0.044448
-0.052437 -0.171201 0.466841
-0.285387 0.397318 0.103406
0.391233 -0.271748 0.151952
-0.481615 -0.056375 -0.121938
-0.135415 -0.479862 0.037357
-0.139306 -0.463867 -0.124183
0.132530 0.393145 0.279057
-0.416489 0.276652 0.001058
0.472818 -0.155350 -0.048054
0.463360 0.154855 0.106383
0.335544 -0.225727 0.294036
-0.370514 0.155560 -0.297524
-0.323435 -0.372935 -0.079432
0.078500 0.426251 -0.249295
-0.491438 0.089756 -0.020790
0.243152 -0.421210 0.116013
-0.332512 0.362330 0.090291
-0.096101 -0.477024 0.114947
0.071399 -0.250077 -0.427041
-0.060385 -0.475313 0.142938
0.364663 -0.013282 0.341825
0.344480 -0.298145 0.206017
-0.191986 0.441154 0.136104
0.001630 -0.323194 -0.381501
-0.316526 0.186148 -0.339353
0.278336 0.018865 -0.414938
0.457378 0.190710 -0.066595
-0.068864 -0.236402 0.435169
0.242725 -0.357620 0.251382
-0.393649 0.283080 -0.122090
-0.374493 0.166697 -0.286299
-0.124469 0.012497 -0.484098
-0.178913 0.098312 0.456426
-0.453465 -0.055114 0.203302
0.336026 -0.366623 0.051715
-0.024653 0.335365 -0.370031
-0.114310 -0.275828 0.401063
0.043870 0.254621 -0.428070
-0.299448 -0.242881 -0.318339
-0.466094 -0.141752 0.112528
-0.180788 0.288943 -0.365824
0.134829 -0.336540 0.344328
-0.159268 0.454593 -0.134086
-0.030672 -0.495294 -0.061180
-0.133268 0.338494 -0.343018
-0.083412 -0.055121 -0.489902
0.333562 0.140667 -0.344891
0.418267 0.270490 0.043447
0.020359 -0.404890 0.292660
0.249062 0.350504 -0.255177
-0.323572 -0.253797 -0.284408
0.225978 0.106568 -0.433102
0.456269 0.136877 -0.151930
0.295579 0.300110 0.269382
-0.046326 0.433758 -0.244351
-0.433178 0.249619 0.006867
-0.379881 -0.223791 -0.235813
-0.329210 -0.203797 -0.316367
0.408419 -0.180794 0.224739
-0.135974 -0.160225 -0.453695
-0.475277 -0.147941 -0.047172
-0.407115 -0.283601 0.061870
0.306035 0.386861 0.081740
-0.217040 0.448180 -0.045038
-0.387745 -0.283730 0.138387
0.408268 -0.149777 0.246746
-0.377250 -0.293709 -0.146349
-0.193925 0.400043 -0.228820
-0.341838 0.325626 -0.164665
0.406213 -0.050765 0.287079
-0.068306 0.177385 -0.462460
-0.087384 -0.376608 0.317065
0.108811 0.472152 -0.123422
-0.128996 0.483073 0.000736
-0.487940 0.081630 0.072468
0.056873 0.047389 0.494489
-0.049390 -0.155982 0.472472
0.038525 0.490228 0.090512
-0.109502 0.417085 0.253080
0.143457 0.443747 -0.180302
0.396875 0.303988 0.009018
0.372105 -0.078484 -0.324619
-0.176789 0.458040 -0.094578
0.458489 0.189844 -0.061212
0.104042 -0.439198 0.215129
-0.011500 0.462429 0.189809
-0.151471 -0.327306 0.346305
-0.106531 0.383381 0.302771
-0.465598 0.156951 -0.092656
0.487410 -0.094999 0.058366
0.283349 0.038584 -0.410152
0.125726 0.332928 0.351215
-0.472121 0.154633 0.056483
0.186889 -0.025361 0.463065
0.153806 -0.464670 0.102104
0.261310 0.426212 -0.007792
0.348967 0.350852 0.071590
0.086168 -0.163587 0.464558
-0.141967 -0.403917 -0.258256
-0.193804 0.082588 0.453452
0.146629 -0.245019 -0.410446
0.345884 -0.034978 -0.359362
-0.092037 0.454820 0.186194
0.089959 0.469496 0.146563
-0.255302 0.225395 -0.366085
0.447022 0.063494 0.214801
0.161918 0.419287 0.219045
0.450954 0.182792 0.115013
-0.399671 0.215040 -0.209812
-0.480093 0.049981 -0.130433
-0.177435 0.467312 -0.011678
-0.184704 -0.455597 0.091189
0.300930 0.241017 0.318358
-0.229370 0.208909 -0.392105
0.107490 -0.487894 -0.020135
0.423471 -0.009477 -0.265674
0.126821 0.383638 0.294513
0.476025 -0.053925 0.143150
0.103083 -0.275832 -0.404092
-0.249921 0.426584 0.074603
0.431629 0.252066 -0.012618
0.303740 0.155024 -0.365664
-0.080709 0.015549 -0.493198
-0.205758 -0.154354 -0.428764
-0.341092 -0.287548 -0.225770
0.084368 -0.469751 -0.149050
-0.159801 -0.465468 0.088337
0.469722 0.074866 -0.154130
