ply
format ascii 1.0
element vertex 1708
property float x
property float y
property float z
end_header
0.163234 -0.034929 0.738593
-0.358098 -0.401400 0.788574
0.671692 -0.341469 0.749225
0.227307 -0.191796 0.772920
-0.474591 -0.449830 0.762026
-0.394599 0.205761 0.783968
-0.495109 0.004697 0.785311
0.638594 -0.489462 0.713193
-0.252770 -0.244788 0.754892
-0.511699 -0.421160 0.735551
0.444485 0.186340 0.794610
0.738334 0.059751 0.776205
-0.609746 -0.113637 0.783278
0.056694 -0.357274 0.718762
-0.601539 0.436135 0.722969
0.694694 0.458084 0.769243
-0.400635 -0.142550 0.775882
-0.604807 0.417222 0.715230
0.659158 0.346090 0.740784
-0.626682 -0.414820 0.747533
0.438823 -0.209675 0.728684
-0.259745 0.082733 0.709597
0.135886 0.088285 0.721122
0.423998 -0.011555 0.790970
0.348654 -0.043287 0.705697
-0.755967 -0.087848 0.779235
-0.068388 0.179162 0.748978
0.217407 0.106261 0.756152
0.343364 0.277175 0.764480
0.095626 -0.120207 0.798501
-0.364263 -0.081263 0.703209
-0.513670 0.143330 0.795775
0.313547 0.044339 0.703509
0.319349 0.326795 0.730440
0.223502 0.002121 0.726969
0.546576 -0.326219 0.706181
0.085778 0.482683 0.737068
0.535384 -0.275380 0.746736
-0.742085 -0.361036 0.702786
0.225447 -0.166642 0.780770
-0.395429 0.336678 0.700583
0.422281 -0.218442 0.790837
-0.316086 0.444309 0.744310
-0.369255 0.316760 0.726510
0.652901 0.492340 0.733426
0.329951 -0.276618 0.778108
-0.171518 -0.306167 0.741546
0.623756 -0.442696 0.798296
-0.159239 0.196917 0.726544
0.015138 -0.333457 0.717073
0.763512 0.039750 0.754321
0.730211 -0.109631 0.722229
0.786310 -0.040151 0.741014
0.121445 0.337876 0.788815
-0.014614 -0.142243 0.757548
-0.193500 0.186148 0.762872
-0.429209 0.031121 0.791698
-0.724925 0.240225 0.709701
0.361849 0.355316 0.755619
-0.448849 -0.313738 0.710913
-0.276293 0.228069 0.732190
-0.011367 0.162266 0.735267
0.147558 -0.325864 0.744022
-0.454538 -0.433219 0.798955
-0.465754 -0.446488 0.727117
0.308162 0.030520 0.770118
-0.668660 0.040230 0.779665
0.516048 0.332620 0.734824
0.360835 -0.043616 0.727342
0.339916 0.287544 0.729472
-0.476898 0.213982 0.710858
0.179162 0.045946 0.723316
-0.098985 0.042683 0.747322
-0.755388 0.185920 0.737796
0.229831 0.321380 0.759792
-0.556158 0.147770 0.747404
-0.484405 0.216456 0.745009
-0.154617 0.137450 0.720351
-0.426480 0.436638 0.734005
0.540890 0.259110 0.798398
-0.160410 -0.340255 0.749766
0.642093 0.126603 0.791496
0.443332 0.427467 0.779659
-0.002792 -0.214843 0.776554
0.615614 -0.243899 0.772640
0.417627 -0.277869 0.733750
-0.396305 0.284505 0.780443
0.252963 -0.335413 0.755456
0.664290 0.039977 0.718650
-0.255654 -0.239526 0.724944
-0.411570 0.187210 0.724284
-0.145315 0.073136 0.740981
-0.449954 0.091427 0.714392
0.381514 0.345576 0.773583
0.631830 -0.110492 0.724951
0.743274 -0.433415 0.774819
0.631406 -0.383924 0.747629
-0.426615 -0.058966 0.788210
0.508904 0.354156 0.788416
0.350597 -0.024220 0.718242
0.320995 -0.277564 0.737648
-0.082547 -0.000571 0.778313
0.644004 0.131193 0.723442
0.349107 0.155529 0.740807
-0.477867 -0.481667 0.730967
-0.354047 -0.194371 0.776778
0.662731 0.220804 0.727968
0.797564 0.163287 0.719154
0.504325 0.456511 0.766803
0.230607 0.479676 0.704314
-0.401159 -0.331531 0.789029
-0.325797 0.040288 0.709627
-0.342006 -0.095567 0.720322
0.424161 0.106971 0.716980
0.684061 0.260937 0.731211
-0.668285 0.319305 0.744649
0.402425 0.230653 0.746772
-0.015715 0.264574 0.717703
-0.520641 0.100129 0.745400
0.679422 -0.091184 0.741539
-0.098328 0.335482 0.781605
-0.314602 0.067454 0.771098
0.061944 0.308256 0.770872
-0.078241 0.042032 0.740189
0.427510 0.263929 0.782292
-0.640669 -0.193771 0.787142
-0.409917 0.394062 0.792299
0.289424 -0.128853 0.740095
-0.673112 -0.193520 0.781956
0.014481 -0.157749 0.721043
0.265564 -0.086348 0.712363
-0.290203 0.450423 0.770277
0.774697 0.322961 0.757139
-0.715028 0.335059 0.720381
0.160588 -0.345060 0.777162
-0.770990 -0.072758 0.788819
0.481089 0.181555 0.763572
0.088036 0.158580 0.793800
0.560338 0.032494 0.769727
0.239369 -0.376584 0.783322
0.362830 -0.005146 0.782136
-0.438563 -0.422806 0.720034
0.111516 -0.094503 0.747079
-0.640713 0.166517 0.775254
0.696058 -0.294185 0.764794
0.532619 -0.358919 0.770797
0.407169 0.157086 0.790368
0.141405 -0.433474 0.706015
0.335116 -0.481382 0.743036
-0.124772 -0.013651 0.796355
-0.148452 0.283390 0.789156
-0.092158 -0.277108 0.783725
0.674419 0.054405 0.744187
0.590183 0.175416 0.791548
-0.581210 0.276114 0.757257
0.129534 0.084339 0.751923
-0.105023 -0.079972 0.745464
-0.637586 -0.027360 0.735179
-0.432146 -0.165198 0.735940
0.372289 0.319556 0.752912
-0.209296 0.389603 0.724955
-0.512315 0.049787 0.753905
0.646911 0.154666 0.761317
-0.345486 -0.251090 0.798734
0.338802 -0.201999 0.704725
-0.525374 0.397896 0.797045
-0.639573 -0.161349 0.708320
-0.440517 -0.092416 0.760661
0.324466 0.370926 0.782892
0.513492 0.105864 0.774079
-0.420282 0.131021 0.791889
0.108103 -0.010600 0.730371
0.167666 0.363967 0.749459
0.173873 0.127546 0.779068
-0.703653 -0.327316 0.781958
0.009043 0.477984 0.745730
0.262702 -0.063033 0.704572
-0.007245 -0.276149 0.741478
-0.714660 0.134769 0.728242
0.519888 -0.320101 0.789063
0.554393 0.055711 0.778912
-0.075081 -0.370321 0.734928
0.452076 -0.258308 0.771919
-0.321849 0.105643 0.737836
0.453621 -0.073075 0.794065
0.700323 -0.136733 0.731666
0.738968 -0.414332 0.774286
-0.788869 0.495185 0.737780
0.586934 -0.245983 0.728241
0.536166 0.325914 0.765759
-0.654355 -0.243172 0.757782
-0.182362 0.076000 0.732375
0.031283 0.059884 0.789364
-0.655347 -0.233758 0.740144
-0.019452 -0.155551 0.750907
-0.615500 0.411783 0.799535
-0.391088 0.117448 0.752176
-0.411560 0.341622 0.783979
0.659307 -0.166325 0.756086
-0.762706 -0.150073 0.722920
-0.079180 -0.140925 0.702811
0.204218 -0.365739 0.797846
-0.695559 -0.378552 0.708727
-0.249155 -0.028570 0.763052
-0.189193 -0.106525 0.798180
-0.309381 0.438611 0.767379
-0.025556 -0.417962 0.781631
0.434705 -0.388554 0.705405
0.612146 0.397351 0.713984
0.680244 -0.267019 0.793882
-0.047507 0.049503 0.704654
0.715006 0.275866 0.703720
0.519018 0.409795 0.708697
-0.557929 -0.083051 0.713335
-0.452055 0.497428 0.702633
0.721391 0.006664 0.766078
0.157974 -0.416013 0.761010
0.093579 -0.041333 0.771763
0.452488 -0.144673 0.788406
-0.789964 0.320059 0.729479
0.584918 -0.290069 0.703666
-0.355151 0.255497 0.759416
-0.459555 -0.286093 0.716679
-0.428632 -0.097445 0.783606
-0.107924 0.102685 0.709161
0.261675 0.351283 0.763319
-0.136649 -0.009908 0.795041
-0.433320 -0.393594 0.794918
-0.435106 0.122786 0.721877
-0.318449 -0.191085 0.709455
-0.364540 -0.412494 0.714985
0.440640 0.196646 0.731867
0.167855 0.476856 0.762907
-0.641387 -0.222269 0.764041
-0.596066 0.424293 0.726540
0.708852 -0.403743 0.735231
0.287591 -0.315073 0.789402
-0.535865 -0.011531 0.788928
-0.472392 0.321879 0.703535
-0.782884 0.203648 0.721106
-0.548061 0.277929 0.744914
0.675955 0.067229 0.713202
0.707744 -0.124963 0.730274
0.476836 0.186575 0.712254
-0.003591 0.090684 0.736169
-0.113947 0.470467 0.758329
-0.134969 -0.425761 0.729014
-0.783827 -0.120346 0.797590
-0.026307 -0.388770 0.777985
0.596748 0.453146 0.763029
-0.311430 -0.062140 0.738182
-0.025896 0.217617 0.701097
-0.325765 0.438691 0.791471
0.191976 -0.456003 0.787850
0.282871 -0.105446 0.756824
0.479198 -0.291536 0.785173
0.141469 0.080558 0.789840
0.618345 0.316113 0.792928
0.543237 0.140869 0.773424
0.409753 0.404961 0.747578
0.295812 0.068255 0.719110
-0.714865 -0.390186 0.736452
0.352070 0.199699 0.747663
0.443223 0.292318 0.760724
0.244768 -0.328752 0.757772
0.451590 0.162458 0.727680
-0.021867 0.078812 0.776278
0.451260 -0.368486 0.741239
0.471941 -0.112255 0.723169
-0.545993 0.271711 0.766760
-0.466868 0.275503 0.728088
0.491762 0.161881 0.787415
-0.458453 -0.055378 0.777169
-0.352505 -0.285154 0.789358
-0.769325 0.302981 0.717053
0.200978 -0.296940 0.747940
0.085859 -0.328070 0.761783
0.774489 0.057029 0.709416
-0.606077 -0.463158 0.731787
-0.145165 0.231520 0.792221
0.266648 -0.226793 0.768538
0.736386 0.256240 0.712943
-0.700286 0.123178 0.750127
-0.578792 0.335767 0.769505
0.356652 -0.172462 0.778632
-0.206575 -0.397703 0.718869
-0.618057 -0.293504 0.724745
0.067217 -0.105779 0.741235
0.652341 0.458970 0.721702
0.162720 0.060768 0.755654
-0.637144 0.449650 0.735657
0.560514 0.213778 0.716677
0.452153 0.363567 0.752415
-0.171372 -0.495849 0.701882
0.028366 0.266596 0.757375
0.085437 0.223088 0.791857
0.713782 -0.474096 0.763787
-0.485085 0.411676 0.792327
0.531658 0.479519 0.742275
-0.158268 -0.015475 0.711634
0.745213 -0.184979 0.752147
-0.521011 -0.285601 0.798872
0.056627 0.165191 0.723125
-0.390500 -0.450856 0.725306
0.772264 0.247956 0.713343
-0.508436 0.353186 0.722942
-0.018946 -0.102495 0.794429
0.711756 0.382414 0.724471
-0.335010 0.484516 0.733214
-0.743351 -0.027601 0.796087
0.276796 0.177129 0.723738
-0.649531 0.469335 0.763437
0.137821 0.271392 0.783180
-0.442147 -0.392641 0.735896
0.093965 -0.235446 0.794684
-0.734065 0.296438 0.739495
-0.242885 0.048721 0.725150
0.003398 -0.145729 0.731042
-0.739788 0.358699 0.755822
-0.049704 0.389746 0.798540
0.636743 -0.144899 0.746945
-0.047756 0.316945 0.786847
-0.126705 0.490427 0.747385
0.112348 0.299001 0.745701
0.650304 0.394508 0.722237
0.219843 0.283974 0.754388
-0.306243 0.293254 0.729505
-0.793433 -0.247788 0.772309
-0.578030 0.150177 0.781271
-0.761930 0.108440 0.703489
-0.274940 -0.329151 0.798574
0.540325 0.495526 0.716288
-0.464955 -0.193610 0.751964
-0.278720 0.293583 0.721411
0.603727 -0.035385 0.729941
0.337568 -0.028393 0.749950
-0.796121 0.350451 0.791442
0.566245 0.273258 0.791274
0.160911 0.222231 0.792366
-0.211590 0.398265 0.794263
-0.318772 -0.485317 0.732401
-0.550577 0.295335 0.757066
-0.144253 -0.369479 0.745234
-0.785367 0.184743 0.785173
-0.323324 -0.302707 0.756008
0.046549 -0.424124 0.717018
-0.595061 0.333913 0.747944
0.425202 -0.394805 0.741463
-0.383465 0.422798 0.790864
0.126903 -0.292105 0.747388
0.581631 0.436519 0.727309
0.688131 0.253539 0.759486
0.582642 -0.126645 0.763864
-0.799256 0.220405 0.738843
0.212594 0.045772 0.749570
0.430386 -0.455235 0.744780
-0.163599 0.333823 0.797349
-0.358380 -0.384532 0.736870
-0.670441 -0.194852 0.772482
-0.247101 -0.111141 0.759528
0.773500 0.376698 0.720855
0.459457 0.445088 0.758478
-0.338681 -0.409461 0.741957
0.459938 0.414262 0.735704
0.700870 -0.417509 0.702580
0.406259 -0.418820 0.709908
-0.593920 -0.214283 0.768387
-0.678264 -0.188087 0.783080
-0.091739 -0.080947 0.735731
-0.552645 -0.335329 0.735118
0.265253 0.266131 0.785666
0.362578 0.388898 0.749989
0.104935 -0.379430 0.787030
-0.269393 0.025360 0.761302
0.378492 0.250497 0.732460
0.135276 -0.246282 0.775555
-0.222879 -0.131631 0.792239
-0.040728 -0.293112 0.700310
-0.000893 -0.123066 0.706754
-0.758688 0.367180 0.769312
-0.483355 0.182258 0.762259
0.570282 -0.099507 0.789863
0.038718 -0.274710 0.713445
-0.685514 0.074717 0.725070
0.091045 0.065133 0.783865
-0.430050 -0.233780 0.708446
-0.595559 -0.123243 0.707578
0.432989 -0.225721 0.782383
-0.560364 -0.356147 0.701927
0.585998 -0.111426 0.746178
-0.245443 -0.056752 0.789538
-0.312191 -0.264398 0.781973
-0.135654 0.360896 0.737455
0.301094 -0.014206 0.766697
0.051519 0.402363 0.715068
0.214592 -0.466835 0.763726
0.139551 0.495143 0.722649
-0.742359 -0.113458 0.799560
-0.477709 -0.193766 0.778847
-0.297027 -0.303400 0.750571
-0.304413 0.035403 0.781314
-0.084845 0.188263 0.799413
0.139100 0.395503 0.742715
0.187388 -0.240354 0.764331
-0.527075 -0.351925 0.793729
-0.285457 0.398742 0.780821
0.159785 -0.172664 0.758348
-0.644029 -0.337882 0.752939
0.639642 -0.410464 0.753485
0.219886 0.479844 0.787278
-0.067999 -0.462338 0.719923
0.721871 -0.324537 0.747193
-0.346765 0.341133 0.746205
0.415726 0.389290 0.770977
0.593812 0.218352 0.738270
-0.748255 0.083860 0.706016
-0.093233 -0.011345 0.780616
-0.387060 -0.437725 0.734133
0.630624 -0.254412 0.714561
-0.710135 -0.173449 0.726700
0.550047 -0.407736 0.735235
0.544190 0.431736 0.706589
0.613473 -0.288985 0.724524
-0.318430 0.134802 0.749883
0.669364 -0.145131 0.769203
-0.368743 0.010590 0.730525
0.253573 -0.414588 0.775593
0.257565 -0.143373 0.709043
0.478218 0.232012 0.758870
0.604669 0.340270 0.726405
0.275368 0.269737 0.759902
0.488620 -0.140164 0.706248
0.202893 -0.033534 0.753870
-0.265968 -0.167243 0.701581
-0.511700 -0.197964 0.708149
0.154674 0.153512 0.799591
-0.081772 -0.086805 0.749871
-0.438900 0.235416 0.771237
0.408801 0.322967 0.792219
0.520637 0.017396 0.754245
-0.385047 -0.269193 0.777649
0.462142 -0.235447 0.711070
-0.212660 -0.012365 0.783258
0.069480 -0.493997 0.754130
-0.640691 -0.158927 0.743189
-0.052739 0.087491 0.740784
-0.086604 0.472257 0.728434
0.142037 0.174946 0.768725
0.649246 0.424736 0.761049
-0.061154 0.267657 0.723909
-0.562813 -0.130630 0.727261
0.488033 0.168404 0.772278
0.571149 -0.296899 0.715892
-0.557703 -0.482349 0.733441
-0.398037 0.360733 0.749431
-0.018420 0.305045 0.716330
-0.384742 -0.062766 0.785283
-0.241365 0.260162 0.738913
-0.437679 -0.157920 0.711181
0.795589 0.285636 0.721741
-0.311488 0.413885 0.785497
0.396002 0.083140 0.781247
-0.705796 0.161040 0.758008
-0.210185 -0.263703 0.762420
-0.198594 0.348780 0.777449
0.668110 0.249468 0.791731
-0.165503 -0.018203 0.709070
-0.124919 -0.115059 0.721153
-0.774235 0.055958 0.795175
0.268672 -0.283159 0.763508
-0.660477 0.040306 0.742302
-0.589811 0.287036 0.737109
-0.172589 -0.389161 0.798811
0.008182 0.205240 0.767272
0.051926 -0.341048 0.751831
0.440203 0.269162 0.732560
-0.109031 -0.032850 0.775816
-0.029618 -0.468659 0.715696
-0.330320 -0.166313 0.722828
0.671725 0.166342 0.778402
-0.647381 -0.313979 0.765834
0.088781 -0.344012 0.717236
-0.316498 0.198454 0.726997
-0.037592 -0.051962 0.768176
0.734021 -0.040084 0.762633
0.731405 0.435213 0.706329
-0.575116 0.014166 0.740303
0.309495 -0.174369 0.729144
0.451026 0.162176 0.755962
0.139414 -0.460468 0.765937
-0.057477 0.114418 0.728027
-0.405893 0.295190 0.780799
-0.024226 0.168084 0.759474
-0.500116 0.083356 0.744449
0.447426 -0.058216 0.737887
-0.645601 0.214909 0.780760
-0.483577 0.253359 0.785507
-0.275859 -0.427475 0.786954
0.728660 0.264455 0.780734
0.719504 0.021333 0.720384
0.077929 -0.178543 0.771033
-0.728548 -0.422984 0.748619
0.442964 -0.011240 0.765803
0.649319 -0.405069 0.786361
-0.516216 0.466873 0.739224
0.615210 -0.173688 0.730968
0.404335 -0.300461 0.770625
-0.150230 -0.065433 0.784148
-0.717210 0.203517 0.766239
-0.197775 0.404594 0.783042
-0.525512 0.199949 0.780810
0.686679 0.354399 0.706213
-0.193401 0.165380 0.748857
-0.186772 -0.139368 0.785109
0.288526 0.159407 0.714039
-0.169241 -0.038164 0.788096
-0.262844 -0.104936 0.725589
0.449313 -0.496170 0.720643
0.068183 0.052413 0.708518
-0.479946 -0.021416 0.781934
-0.138880 0.400950 0.704217
0.406597 -0.412283 0.730997
-0.461144 0.308077 0.744278
-0.158003 -0.205303 0.725151
-0.732032 0.365245 0.799424
0.665484 -0.097965 0.737988
-0.489320 -0.066607 0.724919
0.600533 -0.259887 0.728405
0.703686 -0.125673 0.781433
-0.603440 0.417201 0.773141
0.255555 -0.299585 0.705867
-0.738651 -0.273984 0.773973
0.055389 -0.392065 0.745965
0.119350 -0.247293 0.759278
0.024970 0.048630 0.719871
-0.014430 -0.077621 0.712280
-0.050947 0.254633 0.761513
-0.599109 -0.068383 0.704440
0.314754 0.427953 0.714810
0.484600 -0.116487 0.740239
-0.365139 0.386353 0.707421
0.484105 0.229201 0.788815
0.401312 0.347194 0.744110
0.283098 0.335303 0.779984
-0.544572 -0.068692 0.704570
0.033031 0.085626 0.792594
-0.309794 -0.396608 0.741439
-0.031067 0.431751 0.756129
-0.166810 -0.444344 0.749223
0.780188 0.069888 0.721778
0.668849 0.206062 0.702355
-0.435121 -0.035829 0.709544
-0.253619 0.448980 0.715522
-0.207519 0.458500 0.740208
-0.331316 0.081400 0.737103
-0.204266 -0.277213 0.704652
-0.652636 -0.236143 0.720657
-0.650270 -0.091592 0.762907
-0.117868 0.328562 0.740015
-0.617691 0.087764 0.729261
0.403661 0.213514 0.754083
-0.743296 0.412020 0.791588
-0.520352 -0.003259 0.770237
-0.185274 -0.178248 0.799555
0.787763 -0.433931 0.780313
0.184226 0.434202 0.776377
-0.420981 -0.151172 0.766771
0.016163 -0.391665 0.778338
-0.691878 0.499870 0.724990
-0.551960 0.303117 0.731619
0.374372 -0.007072 0.744452
-0.278311 -0.076365 0.790647
-0.702167 0.406154 0.723161
0.767268 0.345468 0.787002
0.756414 0.305496 0.734781
0.164951 -0.217037 0.712230
-0.323374 -0.282292 0.723045
0.768483 0.152055 0.757959
-0.318208 -0.238696 0.787354
-0.541638 0.119217 0.757419
0.471835 0.441030 0.792272
-0.301024 0.473807 0.785051
0.358811 -0.226463 0.704711
0.247754 0.462928 0.707390
-0.671330 0.131597 0.721839
0.361641 -0.044188 0.731401
0.466492 -0.224459 0.702268
0.371059 -0.087039 0.738033
0.087769 0.091351 0.752871
-0.020853 -0.034005 0.792794
-0.479336 0.419307 0.736988
-0.320977 0.407535 0.761339
-0.056168 -0.082236 0.732837
0.468979 -0.076046 0.743006
0.288971 0.488686 0.778391
-0.344433 0.195852 0.727607
-0.187661 -0.106101 0.731313
0.672545 -0.338651 0.777528
-0.572980 0.494982 0.793469
-0.472227 -0.284461 0.786432
0.221076 -0.410269 0.731126
0.617871 0.434914 0.701054
-0.619145 0.118901 0.719638
0.528145 0.019993 0.763996
0.217186 -0.090899 0.759133
-0.428489 -0.224652 0.700491
0.055989 -0.228719 0.777014
-0.069582 -0.186901 0.731270
0.606930 -0.260838 0.709609
0.753552 -0.174839 0.770067
-0.339605 -0.193466 0.746747
0.422489 -0.156492 0.796950
-0.745080 0.314871 0.768353
-0.356602 -0.320980 0.706523
-0.636562 0.039044 0.736683
0.292558 0.010880 0.764813
-0.484811 0.042186 0.706833
0.048514 -0.156450 0.753642
0.257257 -0.272763 0.725444
0.077188 -0.219529 0.722253
-0.146572 -0.353693 0.732092
-0.433319 0.134810 0.734679
-0.299387 0.339714 0.768993
-0.525522 -0.198835 0.759977
0.527317 -0.424002 0.747302
0.741692 0.075247 0.775397
-0.337226 0.138014 0.766858
0.084613 0.126314 0.795264
0.367442 0.419479 0.780290
-0.178438 -0.195864 0.798069
0.613664 0.169165 0.726234
-0.672654 -0.326346 0.732146
0.078825 -0.002392 0.701164
0.379913 -0.054968 0.743296
-0.094136 -0.089138 0.774004
-0.579109 -0.306657 0.720507
0.720875 -0.019212 0.708533
-0.058240 -0.112631 0.738476
0.051923 -0.324340 0.711446
0.418656 0.064165 0.796955
0.616073 -0.004097 0.751288
0.482322 -0.021213 0.722780
-0.453331 -0.089682 0.739625
0.106948 0.458162 0.703729
-0.260990 -0.359601 0.709113
0.506806 0.340058 0.724626
0.138375 -0.364938 0.734306
0.280437 -0.025186 0.740773
-0.580432 0.214267 0.733690
-0.247789 0.071429 0.791515
-0.640532 -0.014985 0.774923
-0.278801 0.188836 0.749920
0.087713 0.351764 0.725368
0.122942 0.265982 0.799473
-0.592299 -0.346278 0.781452
-0.101790 -0.272987 0.724319
0.586242 -0.428996 0.752043
0.300756 -0.066313 0.733169
0.002348 0.333007 0.792265
0.227023 0.344334 0.733092
-0.774701 0.064291 0.714252
0.110012 0.306981 0.721434
-0.773892 0.133653 0.731718
-0.022796 -0.214046 0.773109
-0.648258 -0.225302 0.776067
0.246952 -0.113212 0.744903
-0.076471 -0.177147 0.702930
0.795880 0.247846 0.785234
-0.589135 0.455406 0.757002
-0.680775 0.181069 0.722731
-0.738024 0.464235 0.701300
-0.328674 0.019658 0.737011
-0.342640 0.298196 0.738084
-0.675509 0.111651 0.755103
-0.420148 0.135589 0.737143
0.427878 0.142117 0.734126
0.468081 0.305994 0.715047
-0.797757 -0.125506 0.701113
0.296591 -0.035358 0.787265
0.490951 -0.329957 0.763044
-0.678811 0.037761 0.735722
-0.156688 -0.310643 0.749153
0.088782 -0.434515 0.787939
0.166375 0.026103 0.745423
-0.282373 -0.411970 0.781721
0.007567 -0.038822 0.777584
0.202693 0.053902 0.713237
0.246945 0.007060 0.752343
0.525894 -0.415735 0.778388
-0.201383 -0.415482 0.780181
0.008444 0.494306 0.725245
0.513922 -0.008554 0.704124
-0.170183 0.479770 0.728381
0.133132 0.247977 0.767660
0.298463 -0.457796 0.789091
-0.227676 -0.107417 0.768977
-0.478027 -0.431902 0.752176
-0.382703 -0.268185 0.714910
-0.089283 0.106976 0.758648
0.558424 -0.206375 0.732251
-0.532227 -0.489164 0.700922
0.183540 0.489756 0.730618
0.657761 0.137762 0.786830
-0.056204 -0.457258 0.786695
-0.386943 -0.102603 0.712468
0.362340 -0.231621 0.785109
-0.160303 -0.127076 0.712034
-0.546313 -0.110463 0.720224
-0.154867 -0.352464 0.717487
0.257507 0.475644 0.779851
-0.415910 -0.343893 0.782228
0.105203 -0.001234 0.760532
-0.525395 0.055017 0.777134
0.624427 0.386965 0.723111
-0.130342 -0.350904 0.712335
0.249764 -0.448333 0.725134
-0.011564 -0.225211 0.733895
-0.347617 -0.183881 0.714321
0.528452 -0.093798 0.729138
0.419580 0.395482 0.766586
-0.793642 0.372369 0.784423
-0.413545 0.493721 0.716283
-0.197472 0.471987 0.762784
0.271555 0.441927 0.776371
0.612068 0.453538 0.782823
0.742303 -0.303106 0.751105
-0.113695 0.269950 0.748294
-0.648759 -0.330855 0.723462
-0.115931 -0.284380 0.748337
0.359585 -0.303274 0.795867
-0.430381 -0.316311 0.724242
0.783212 -0.225333 0.732841
-0.400320 0.099573 0.729041
-0.002366 -0.342549 0.715216
0.611311 -0.043530 0.796056
-0.704946 -0.468209 0.741958
0.621833 0.020386 0.740746
-0.257842 -0.373426 0.737694
0.729757 0.362952 0.771633
0.004436 -0.041772 0.795648
0.237363 0.370899 0.747648
-0.780094 0.040606 0.721780
0.644857 -0.401818 0.715174
0.484596 -0.352957 0.726240
-0.464973 -0.125537 0.714318
0.151791 0.276497 0.789425
-0.010224 -0.299281 0.714888
0.744992 -0.492294 0.770734
0.655751 0.171125 0.730561
0.684590 -0.431685 0.746375
-0.670435 0.498261 0.796730
0.408955 -0.276670 0.750980
0.631768 -0.231309 0.710558
0.511805 -0.129579 0.781594
0.607807 0.109834 0.777312
0.532392 -0.409573 0.752045
-0.724956 -0.395474 0.730823
-0.062832 -0.045434 0.747919
0.336514 -0.363980 0.786342
0.556265 -0.361670 0.704846
-0.183088 0.458545 0.719264
-0.190123 -0.277085 0.756744
-0.039758 -0.328273 0.770910
0.078205 0.256146 0.762759
0.634358 0.293429 0.788612
-0.132636 -0.120531 0.744638
0.144420 0.383283 0.712833
-0.590007 0.155205 0.726435
-0.728120 -0.354738 0.428188
-0.709395 -0.373168 0.589414
-0.741111 -0.377979 0.001998
-0.714951 -0.421195 0.305231
-0.676808 -0.350674 0.670316
-0.666263 -0.446246 0.539080
-0.737630 -0.377088 0.137414
-0.671678 -0.372943 0.179890
-0.711818 -0.410048 0.452125
-0.714440 -0.446222 0.661307
-0.700565 -0.410691 0.310409
-0.697182 -0.410214 0.349318
-0.736955 -0.401632 0.092828
-0.747133 -0.441131 0.587701
-0.724897 -0.350369 0.156845
-0.695549 -0.414224 0.378844
-0.717057 -0.376087 0.309986
-0.733062 -0.359876 0.335901
-0.722770 -0.413639 0.488534
-0.677128 -0.430007 0.669847
-0.671884 -0.443453 0.618113
-0.661083 -0.359576 0.351027
-0.727405 -0.363430 0.365822
-0.705864 -0.367591 0.223368
-0.683807 -0.420193 0.612370
-0.730276 -0.398814 0.663937
-0.740260 -0.423523 0.507688
-0.665853 -0.364793 0.454313
-0.728085 -0.382191 0.640001
-0.726367 -0.416306 0.183492
-0.733684 -0.444912 0.395938
-0.666233 -0.406751 0.398023
-0.711572 -0.412662 0.632112
-0.694527 -0.381407 0.695503
-0.652851 -0.438751 0.532610
-0.726486 -0.431366 0.522280
-0.654390 -0.383506 0.143588
-0.660573 -0.370581 0.388594
-0.683604 -0.417655 0.059758
-0.738055 -0.432949 0.370054
-0.711715 -0.376381 0.043936
-0.656461 -0.449474 0.269812
-0.736973 -0.397133 0.118577
-0.732944 -0.374592 0.609939
-0.684518 -0.358731 0.478162
-0.686716 -0.440234 0.229084
-0.655239 -0.350928 0.567659
-0.741387 -0.397124 0.272902
-0.682952 -0.412494 0.232728
-0.690681 -0.436629 0.323848
-0.690217 -0.368700 0.426948
-0.694546 -0.394427 0.660634
-0.653442 -0.445735 0.510692
-0.749670 -0.360733 0.161178
-0.708887 -0.366959 0.267779
-0.686623 -0.357578 0.369619
-0.663169 -0.408749 0.668499
-0.717640 -0.448984 0.230197
-0.703454 -0.422790 0.676926
-0.726060 -0.406825 0.161208
-0.741284 -0.368830 0.243516
-0.720831 -0.387704 0.697774
-0.746362 -0.429708 0.579868
-0.700755 -0.399377 0.115225
-0.660797 -0.444798 0.364713
-0.728472 -0.433442 0.282975
-0.651428 -0.375361 0.526337
-0.663611 -0.432575 0.557701
-0.664736 -0.430959 0.556960
-0.719691 -0.407221 0.060588
-0.686284 -0.382912 0.418510
-0.692131 -0.401232 0.605409
-0.733331 -0.425712 0.161939
-0.662231 -0.385803 0.090037
-0.746410 -0.440158 0.058167
-0.730468 -0.420149 0.619716
-0.695313 -0.397839 0.073367
-0.691284 -0.407008 0.011380
-0.698343 -0.387775 0.523919
-0.704436 -0.430951 0.157235
-0.682144 -0.422257 0.514774
-0.727586 -0.403864 0.543466
-0.733364 -0.393230 0.075223
-0.674964 -0.375748 0.340548
-0.713370 -0.393282 0.651263
-0.674570 -0.376240 0.213345
-0.743878 -0.399792 0.570197
-0.669644 -0.446902 0.357036
-0.749610 -0.353388 0.443859
-0.689976 -0.376836 0.623896
-0.727697 -0.379542 0.494098
-0.669949 -0.445469 0.446671
-0.665949 -0.420937 0.020552
-0.733146 -0.412409 0.334938
-0.698400 -0.369638 0.380349
-0.683244 -0.445719 0.406302
-0.744156 -0.448125 0.206161
-0.690294 -0.433759 0.164670
-0.695864 -0.362823 0.169824
-0.665320 -0.389201 0.662431
-0.652571 -0.416719 0.109003
-0.701869 -0.377820 0.563784
-0.727382 -0.410948 0.207287
-0.687467 -0.375717 0.678389
-0.673571 -0.421319 0.288871
-0.744557 -0.444552 0.317300
-0.739724 -0.414851 0.519801
-0.663319 -0.388653 0.689797
-0.726783 -0.379198 0.557197
-0.680378 -0.433239 0.351378
-0.660888 -0.440397 0.435717
-0.739075 -0.359270 0.250453
-0.745528 -0.415844 0.142879
-0.735283 -0.407918 0.592015
-0.722574 -0.437452 0.212168
-0.725951 -0.441568 0.385205
-0.712797 -0.386225 0.543962
-0.674719 -0.366776 0.204252
-0.741334 -0.390400 0.387027
-0.666813 -0.403439 0.654195
-0.723837 -0.362389 0.648144
-0.697881 -0.428781 0.116556
-0.741256 -0.371942 0.253579
-0.745637 -0.412320 0.697690
-0.680160 -0.416910 0.556830
-0.667086 -0.447254 0.299283
-0.742611 -0.389850 0.582746
-0.668668 -0.440414 0.008955
-0.694576 -0.393216 0.106854
-0.732180 -0.378649 0.603214
-0.695173 -0.447164 0.199698
-0.728422 -0.364719 0.201651
-0.652635 -0.419955 0.179705
-0.740209 -0.355622 0.324629
-0.747146 -0.430292 0.585433
-0.681662 -0.426786 0.417660
-0.698298 -0.352633 0.451014
-0.724187 -0.435342 0.184570
-0.681202 -0.356519 0.357954
-0.733445 -0.448313 0.185320
-0.664796 -0.438732 0.273977
-0.652110 -0.440267 0.373654
-0.655048 -0.424524 0.548793
-0.666969 -0.399103 0.685806
-0.668957 -0.409096 0.136904
-0.729455 -0.383121 0.050619
-0.652116 -0.375484 0.386999
-0.653711 -0.414908 0.522253
-0.734246 -0.441817 0.156528
-0.652254 -0.436988 0.551735
-0.683961 -0.414525 0.295977
-0.681464 -0.392327 0.021931
-0.716943 -0.442124 0.131895
-0.704860 -0.382908 0.327529
-0.669741 -0.406548 0.580017
-0.674837 -0.363133 0.633600
-0.727259 -0.382892 0.454469
-0.712368 -0.410219 0.098922
-0.729130 -0.383041 0.530791
-0.711871 -0.392917 0.522311
-0.661680 -0.396183 0.540427
-0.718213 -0.378088 0.593878
-0.736577 -0.402050 0.031190
-0.655297 -0.385162 0.661801
-0.688239 -0.350665 0.299376
-0.738399 -0.370416 0.641306
-0.745116 -0.417948 0.230288
-0.702140 -0.438540 0.193086
-0.726223 -0.437838 0.572900
-0.727123 -0.403287 0.673833
-0.676002 -0.382322 0.053141
-0.700983 -0.427780 0.268544
-0.716974 -0.424468 0.117042
-0.712085 -0.395778 0.072576
-0.702749 -0.386149 0.553423
-0.744860 -0.448019 0.293874
-0.682910 -0.350642 0.127011
-0.671501 -0.385790 0.685237
-0.701463 -0.376338 0.446004
-0.724683 -0.395292 0.240589
-0.660424 -0.433896 0.296061
-0.688694 -0.446220 0.642870
-0.669743 -0.407219 0.215444
-0.674833 -0.433777 0.055415
-0.736911 -0.418537 0.402189
-0.658492 -0.365464 0.330612
-0.661732 -0.425817 0.465663
-0.728822 -0.432161 0.249953
-0.749257 -0.378980 0.012573
-0.733079 -0.393143 0.367611
-0.744825 -0.445897 0.146666
-0.717999 -0.434547 0.432079
-0.652799 -0.401516 0.062530
-0.712664 -0.394547 0.221733
-0.704912 -0.352330 0.652512
-0.691415 -0.440394 0.180441
-0.714068 -0.362267 0.150971
-0.691095 -0.412140 0.326390
-0.710726 -0.350508 0.260930
-0.692127 -0.358229 0.288239
-0.739423 -0.398187 0.489731
-0.653435 -0.358276 0.560212
-0.685751 -0.405255 0.203491
-0.728059 -0.367928 0.598484
-0.732323 -0.425657 0.047064
-0.654747 -0.403179 0.311383
-0.711290 -0.356191 0.043833
-0.705570 -0.411125 0.591629
-0.708597 -0.439988 0.103219
-0.670695 -0.392976 0.508462
-0.701190 -0.442691 0.692118
-0.691707 -0.387594 0.182581
-0.724154 -0.351577 0.389053
-0.691649 -0.430102 0.099725
-0.685820 -0.382842 0.579193
-0.743558 -0.359602 0.228891
-0.699769 -0.432331 0.578770
-0.695392 -0.367809 0.239740
-0.685145 -0.414137 0.515294
-0.735304 -0.391481 0.041113
-0.691317 -0.369749 0.005712
-0.674412 -0.435057 0.452361
-0.686562 -0.381145 0.211349
-0.684707 -0.446056 0.647340
-0.708163 -0.404458 0.504292
-0.711440 -0.449065 0.499682
-0.727550 -0.408789 0.333024
-0.686637 -0.449114 0.507453
-0.679715 -0.363869 0.186183
-0.720036 -0.427406 0.264089
-0.712561 -0.370790 0.000915
-0.733836 -0.359533 0.518595
-0.699424 -0.422220 0.690693
-0.662355 -0.376894 0.298653
-0.699723 -0.353208 0.142034
-0.740531 -0.357187 0.555955
-0.666886 -0.433336 0.444432
-0.699398 -0.448579 0.048948
-0.726945 -0.448342 0.678498
-0.704332 -0.404422 0.429736
-0.746219 -0.389199 0.257308
-0.683131 -0.443537 0.318323
-0.732668 -0.352777 0.038158
-0.651114 -0.425745 0.420152
-0.733599 -0.381977 0.630839
-0.716996 -0.357182 0.001770
-0.744417 -0.428158 0.526432
-0.660523 -0.378005 0.631222
-0.698563 -0.385464 0.427759
-0.715567 -0.382485 0.147313
0.704173 -0.357052 0.012363
0.744334 -0.434796 0.051311
0.662735 -0.416944 0.464265
0.695671 -0.374502 0.220474
0.740368 -0.414062 0.380289
0.745895 -0.410985 0.003432
0.658243 -0.395195 0.218813
0.746441 -0.408239 0.129794
0.727677 -0.412217 0.447882
0.715035 -0.444769 0.135920
0.749748 -0.395239 0.216862
0.694388 -0.383905 0.535374
0.712078 -0.360140 0.531985
0.697254 -0.409739 0.026190
0.675613 -0.441162 0.134672
0.741742 -0.437405 0.318726
0.702191 -0.394658 0.092272
0.685756 -0.441829 0.012020
0.699008 -0.444130 0.532972
0.703610 -0.427505 0.592207
0.736366 -0.350097 0.198548
0.670564 -0.431804 0.356045
0.718984 -0.354069 0.005361
0.707988 -0.449699 0.002663
0.738029 -0.407122 0.691442
0.650847 -0.379799 0.122688
0.650224 -0.440117 0.431116
0.686295 -0.428632 0.407818
0.722658 -0.444911 0.525678
0.738631 -0.442714 0.358580
0.653520 -0.356891 0.668270
0.714904 -0.364305 0.198281
0.674441 -0.398181 0.303126
0.749606 -0.377370 0.552971
0.742785 -0.405669 0.277369
0.682050 -0.430212 0.217947
0.727032 -0.355526 0.111708
0.731193 -0.404067 0.595842
0.732670 -0.357381 0.312244
0.730561 -0.404119 0.342539
0.694329 -0.445892 0.382633
0.729653 -0.433178 0.528673
0.683707 -0.422423 0.145236
0.711134 -0.433025 0.182663
0.663764 -0.433607 0.618568
0.705901 -0.400481 0.671197
0.677532 -0.353595 0.576985
0.707203 -0.409870 0.530810
0.654697 -0.427203 0.664570
0.693009 -0.394184 0.000144
0.669755 -0.371364 0.099172
0.681965 -0.390390 0.513216
0.731010 -0.396977 0.657654
0.729422 -0.377687 0.595988
0.660491 -0.388941 0.537102
0.735801 -0.370905 0.078146
0.668517 -0.353989 0.294369
0.670505 -0.356986 0.240823
0.671813 -0.374032 0.169019
0.683312 -0.361717 0.437420
0.717641 -0.390177 0.450022
0.726886 -0.374965 0.415014
0.676415 -0.379514 0.628297
0.736961 -0.417845 0.026354
0.717052 -0.378200 0.028549
0.689669 -0.389607 0.120201
0.737300 -0.428552 0.055508
0.704419 -0.416300 0.600945
0.681109 -0.370424 0.104093
0.721766 -0.354545 0.562812
0.721182 -0.431551 0.554951
0.731022 -0.412106 0.529039
0.722810 -0.404087 0.240705
0.688509 -0.412730 0.312913
0.720337 -0.380126 0.100122
0.744155 -0.403391 0.235487
0.715585 -0.428304 0.570079
0.667099 -0.388501 0.235155
0.674050 -0.390481 0.059841
0.740879 -0.411682 0.504292
0.711236 -0.367040 0.417346
0.700124 -0.369818 0.191221
0.711742 -0.372064 0.292415
0.668173 -0.386091 0.561354
0.715740 -0.396594 0.051145
0.714097 -0.351510 0.465080
0.702075 -0.368344 0.664414
0.709674 -0.394297 0.599590
0.675347 -0.444597 0.130043
0.662885 -0.381787 0.285934
0.669093 -0.369002 0.486785
0.708076 -0.352735 0.139336
0.740587 -0.401706 0.090001
0.743508 -0.374696 0.554604
0.697295 -0.410703 0.530189
0.716917 -0.443000 0.475837
0.711307 -0.426325 0.457241
0.663205 -0.431020 0.471776
0.740736 -0.380948 0.298576
0.693863 -0.402381 0.193230
0.742547 -0.407130 0.612143
0.735702 -0.395387 0.615094
0.681252 -0.393309 0.658714
0.681233 -0.437566 0.549231
0.745712 -0.423351 0.094906
0.680261 -0.405875 0.409910
0.697498 -0.449525 0.322152
0.698729 -0.429007 0.189682
0.721799 -0.439840 0.084165
0.699037 -0.374452 0.183774
0.659081 -0.425454 0.012524
0.681773 -0.446329 0.434793
0.711119 -0.381420 0.628694
0.681069 -0.407248 0.468398
0.736768 -0.434232 0.295133
0.667519 -0.439175 0.354232
0.738980 -0.399807 0.538345
0.720874 -0.381465 0.425609
0.724377 -0.432595 0.325573
0.709302 -0.403737 0.363067
0.675965 -0.439982 0.158750
0.706607 -0.426425 0.605798
0.675140 -0.363716 0.637208
0.734773 -0.400995 0.199427
0.709348 -0.365149 0.035009
0.695644 -0.425302 0.293829
0.677189 -0.376088 0.418315
0.656492 -0.392396 0.615972
0.689522 -0.413040 0.365944
0.736817 -0.355484 0.352430
0.716710 -0.383095 0.219776
0.736126 -0.368591 0.220537
0.660306 -0.426743 0.319570
0.699844 -0.371705 0.281696
0.726533 -0.423120 0.322436
0.717338 -0.357803 0.375962
0.749354 -0.363432 0.465923
0.663851 -0.417673 0.097085
0.739019 -0.395295 0.449246
0.710809 -0.440856 0.083168
0.680680 -0.433608 0.338011
0.715415 -0.355309 0.005647
0.718194 -0.354389 0.653164
0.652463 -0.388250 0.187342
0.677778 -0.359454 0.562177
0.685235 -0.432721 0.201073
0.681014 -0.412557 0.248726
0.731855 -0.405833 0.697057
0.702351 -0.392269 0.230619
0.657042 -0.393451 0.031450
0.676444 -0.352094 0.691380
0.707368 -0.376023 0.459442
0.743510 -0.369292 0.170670
0.651981 -0.388897 0.022450
0.698002 -0.368230 0.157347
0.670673 -0.421901 0.185004
0.690413 -0.394519 0.655226
0.697798 -0.398299 0.111449
0.687285 -0.424573 0.695085
0.650316 -0.401252 0.357573
0.672023 -0.378881 0.243633
0.686673 -0.436016 0.137358
0.662329 -0.370306 0.188730
0.729156 -0.365994 0.342548
0.672377 -0.356158 0.072094
0.737771 -0.430459 0.124561
0.715008 -0.395837 0.242226
0.664952 -0.432736 0.385341
0.698166 -0.356772 0.028066
0.666887 -0.360583 0.245361
0.732431 -0.429881 0.210925
0.698251 -0.419360 0.556587
0.736771 -0.426990 0.464034
0.659249 -0.434983 0.030790
0.687887 -0.405404 0.255639
0.657116 -0.362244 0.417317
0.716537 -0.353725 0.186786
0.736040 -0.380831 0.606250
0.694892 -0.393995 0.026986
0.682224 -0.442746 0.207916
0.677107 -0.366366 0.477309
0.650336 -0.368135 0.586836
0.675644 -0.417527 0.556237
0.675975 -0.357832 0.082862
0.677118 -0.419146 0.177823
0.729052 -0.411113 0.401271
0.665351 -0.447231 0.024316
0.739717 -0.400449 0.153377
0.740090 -0.416736 0.420319
0.664205 -0.364266 0.669151
0.671156 -0.419935 0.637912
0.737112 -0.445340 0.001389
0.691844 -0.428760 0.207667
0.669918 -0.358236 0.369071
0.669441 -0.375019 0.039462
0.661020 -0.364804 0.696144
0.652780 -0.436744 0.445906
0.683589 -0.379858 0.455167
0.734537 -0.356158 0.638748
0.723857 -0.424165 0.453773
0.659721 -0.352382 0.402981
0.686880 -0.367769 0.286368
0.662972 -0.448164 0.574490
0.731755 -0.404136 0.353791
0.739333 -0.441749 0.089273
0.690252 -0.441227 0.671929
0.728656 -0.363591 0.319950
0.672827 -0.371280 0.436252
0.676374 -0.408052 0.235344
0.706842 -0.387906 0.182464
0.745929 -0.422093 0.310093
0.739351 -0.434707 0.032190
0.686019 -0.361966 0.547880
0.669950 -0.424984 0.178882
0.713714 -0.367175 0.163293
0.684880 -0.372248 0.570440
0.655664 -0.404512 0.531857
0.714893 -0.397440 0.459396
0.663925 -0.426778 0.332997
0.664696 -0.384240 0.614399
0.715989 -0.367655 0.167895
0.717399 -0.396379 0.420806
0.657624 -0.408965 0.594411
0.709893 -0.377835 0.305501
0.656563 -0.406359 0.373895
0.685818 -0.434444 0.360331
0.743924 -0.415337 0.022919
0.742366 -0.377815 0.048026
0.711773 -0.370937 0.164957
0.715762 -0.433554 0.087500
0.674347 -0.437589 0.467102
0.666090 -0.415668 0.261988
0.658075 -0.375498 0.023564
0.705696 -0.426431 0.692406
0.676155 -0.408551 0.408598
0.661511 -0.435623 0.406449
0.730968 -0.357924 0.560138
0.711474 -0.409730 0.238896
0.705250 -0.411531 0.456065
0.748755 -0.361889 0.285630
0.725668 -0.422135 0.532202
0.653679 -0.360898 0.576803
0.719590 -0.365136 0.243657
0.727977 -0.416818 0.226262
0.673569 -0.449606 0.571237
0.687969 -0.448176 0.298923
0.681056 -0.404045 0.078378
0.650664 -0.363109 0.659004
0.675535 -0.408306 0.246709
0.695221 -0.350578 0.439169
-0.714861 0.397959 0.417372
-0.706771 0.383939 0.009507
-0.703416 0.400235 0.327655
-0.661120 0.364646 0.645643
-0.697386 0.360542 0.576948
-0.675001 0.381119 0.546229
-0.673123 0.403642 0.014819
-0.736579 0.353229 0.163743
-0.666452 0.386568 0.053598
-0.661804 0.363526 0.377676
-0.679080 0.353053 0.575301
-0.734016 0.404192 0.413242
-0.661574 0.370584 0.026590
-0.689808 0.361598 0.287944
-0.744130 0.429894 0.669248
-0.739236 0.403667 0.260126
-0.655599 0.368755 0.409075
-0.666832 0.447884 0.085496
-0.660083 0.428335 0.401795
-0.728922 0.355489 0.543250
-0.725039 0.409516 0.044125
-0.656613 0.364467 0.571562
-0.709983 0.370206 0.063651
-0.677142 0.354234 0.475139
-0.730516 0.414762 0.355567
-0.686792 0.373053 0.183725
-0.683381 0.371629 0.687246
-0.707702 0.396641 0.510264
-0.726528 0.446673 0.489550
-0.728812 0.422538 0.005514
-0.655646 0.374150 0.212396
-0.656961 0.377884 0.032618
-0.661530 0.368380 0.646194
-0.668900 0.408487 0.382203
-0.714465 0.416751 0.241699
-0.699544 0.436970 0.275873
-0.664779 0.373669 0.485722
-0.700583 0.391339 0.112335
-0.715937 0.431410 0.558522
-0.729779 0.432183 0.586380
-0.744629 0.350387 0.280068
-0.681119 0.373444 0.092795
-0.683201 0.394888 0.028437
-0.678620 0.400363 0.221219
-0.693209 0.444681 0.230940
-0.723424 0.407308 0.249536
-0.656704 0.361746 0.349500
-0.685595 0.383613 0.384591
-0.739538 0.449359 0.235564
-0.666180 0.412868 0.345929
-0.741368 0.384981 0.615428
-0.656281 0.367771 0.321370
-0.652528 0.398550 0.113245
-0.690371 0.359937 0.273759
-0.705890 0.404601 0.355994
-0.745055 0.366369 0.051590
-0.745573 0.355384 0.668442
-0.738504 0.363060 0.244535
-0.653975 0.429137 0.440281
-0.686319 0.414483 0.380921
-0.698774 0.361395 0.044445
-0.661500 0.418336 0.136531
-0.717608 0.360158 0.611323
-0.679095 0.437468 0.127632
-0.737376 0.395983 0.061760
-0.690088 0.433106 0.656393
-0.712128 0.406002 0.261119
-0.703284 0.373943 0.656213
-0.678693 0.394391 0.129316
-0.670067 0.369951 0.500486
-0.658576 0.417539 0.281953
-0.650126 0.444072 0.257419
-0.737023 0.390396 0.522575
-0.676568 0.433460 0.697449
-0.692223 0.437799 0.243156
-0.683267 0.389295 0.217412
-0.715895 0.407440 0.350656
-0.746278 0.443888 0.612391
-0.669224 0.394979 0.278972
-0.707526 0.431241 0.494082
-0.700295 0.351084 0.008013
-0.716684 0.397827 0.533350
-0.721405 0.414466 0.573586
-0.712384 0.420024 0.582578
-0.739002 0.423780 0.518335
-0.691675 0.440745 0.632268
-0.738867 0.355744 0.003368
-0.732129 0.365529 0.245294
-0.716445 0.409951 0.146076
-0.679036 0.370398 0.385996
-0.662056 0.428479 0.272218
-0.694708 0.406239 0.159523
-0.679193 0.437476 0.206140
-0.678823 0.403025 0.526879
-0.664502 0.439326 0.584874
-0.684390 0.360900 0.464008
-0.747067 0.362577 0.481215
-0.688780 0.374880 0.208906
-0.681271 0.359440 0.463095
-0.655525 0.365470 0.677438
-0.661495 0.354893 0.530209
-0.651364 0.427245 0.313056
-0.742995 0.424352 0.238470
-0.733374 0.355565 0.194587
-0.700097 0.400833 0.114207
-0.671812 0.369726 0.031780
-0.683988 0.363858 0.289271
-0.677120 0.448992 0.270604
-0.663542 0.389693 0.663134
-0.746606 0.407344 0.491351
-0.719129 0.395381 0.033119
-0.737417 0.360345 0.111396
-0.684152 0.425757 0.038827
-0.728751 0.409949 0.279028
-0.682624 0.391452 0.414102
-0.719066 0.365334 0.643205
-0.683105 0.370114 0.241811
-0.707143 0.412508 0.018886
-0.733280 0.440680 0.341588
-0.719269 0.423390 0.399605
-0.681936 0.375615 0.101970
-0.742000 0.410777 0.599901
-0.725528 0.422633 0.455845
-0.734076 0.424160 0.687614
-0.658802 0.382920 0.582156
-0.675209 0.376503 0.267685
-0.701618 0.385355 0.223545
-0.678371 0.373385 0.551438
-0.727705 0.370302 0.029573
-0.749489 0.393409 0.590009
-0.658562 0.388095 0.614891
-0.736077 0.360860 0.697673
-0.707427 0.446433 0.588843
-0.651687 0.406058 0.493384
-0.719575 0.389166 0.600436
-0.749950 0.395729 0.230348
-0.716622 0.376139 0.089347
-0.667670 0.372734 0.519829
-0.746428 0.390362 0.313798
-0.712173 0.355290 0.368302
-0.745504 0.414393 0.689346
-0.689354 0.404135 0.522694
-0.716887 0.434518 0.009896
-0.666144 0.446691 0.649168
-0.749742 0.390986 0.465053
-0.727952 0.382804 0.381310
-0.698795 0.406689 0.495740
-0.728123 0.375899 0.534913
-0.706465 0.410571 0.465409
-0.742722 0.435139 0.616882
-0.656296 0.439931 0.675311
-0.707334 0.368507 0.155968
-0.668655 0.373252 0.296487
-0.735697 0.399828 0.304642
-0.743846 0.396070 0.460263
-0.650146 0.390756 0.179883
-0.736004 0.408684 0.626814
-0.700395 0.375086 0.215582
-0.665130 0.442864 0.433046
-0.697306 0.385803 0.637311
-0.725418 0.353413 0.203601
-0.685829 0.393464 0.149110
-0.685867 0.373665 0.253243
-0.678894 0.358639 0.356590
-0.675099 0.372226 0.425236
-0.747175 0.395163 0.493586
-0.669799 0.434033 0.569680
-0.684043 0.389215 0.024722
-0.689721 0.387612 0.622225
-0.653267 0.407765 0.618913
-0.719629 0.375105 0.516768
-0.725968 0.415856 0.126931
-0.671333 0.382313 0.270388
-0.745465 0.403344 0.483354
-0.713333 0.397116 0.392271
-0.673640 0.426585 0.662892
-0.650365 0.376795 0.370308
-0.703405 0.369497 0.130619
-0.660196 0.417752 0.275600
-0.659411 0.438870 0.063170
-0.730815 0.367384 0.268237
-0.746001 0.447134 0.229483
-0.673758 0.411979 0.549605
-0.702658 0.431493 0.173025
-0.687375 0.419544 0.110067
-0.671181 0.364109 0.384206
-0.748957 0.362787 0.188767
-0.696924 0.356483 0.440475
-0.665215 0.443319 0.357100
-0.742228 0.435294 0.594365
-0.691805 0.353127 0.331792
-0.749583 0.400633 0.355420
-0.711751 0.392941 0.176776
-0.683047 0.412662 0.625382
-0.677263 0.435372 0.660237
-0.711362 0.398089 0.519153
-0.723726 0.429986 0.388962
-0.716165 0.363347 0.600272
-0.730988 0.449467 0.001282
-0.666851 0.373855 0.511680
-0.706038 0.422197 0.234542
-0.727490 0.418009 0.264726
-0.715783 0.413731 0.293936
-0.676229 0.352111 0.082700
-0.696442 0.407133 0.098554
-0.656738 0.415084 0.123246
-0.654169 0.437548 0.591331
-0.739747 0.405057 0.157882
-0.670089 0.389982 0.692761
-0.720101 0.371347 0.266070
-0.714848 0.396282 0.403563
-0.654626 0.403207 0.641628
-0.707144 0.429473 0.509734
-0.690238 0.399734 0.678245
-0.728776 0.355653 0.298636
-0.706123 0.378758 0.612213
-0.671826 0.427788 0.224708
-0.657998 0.412526 0.257523
-0.728850 0.433483 0.217483
-0.671730 0.358729 0.005441
-0.716342 0.375550 0.024174
-0.710451 0.409578 0.666731
-0.730346 0.422187 0.156645
-0.695317 0.421916 0.202127
-0.740433 0.367234 0.175442
-0.672814 0.389776 0.093042
-0.667058 0.405576 0.213414
-0.716851 0.365786 0.331427
-0.676755 0.354009 0.485434
-0.722537 0.416652 0.578685
-0.704781 0.417328 0.179944
-0.657576 0.415459 0.485701
-0.731309 0.406206 0.181716
-0.655160 0.422350 0.600094
-0.683980 0.362211 0.210031
-0.701529 0.361540 0.481358
-0.693526 0.415741 0.520949
-0.716113 0.384498 0.386714
-0.686303 0.397298 0.455181
-0.710766 0.415650 0.514891
-0.740146 0.434992 0.577610
-0.688892 0.427021 0.155394
-0.706394 0.379786 0.142576
-0.672751 0.397194 0.083300
-0.698643 0.427147 0.340251
-0.661237 0.424684 0.403835
-0.654783 0.391978 0.078212
-0.696700 0.426108 0.292001
-0.652732 0.437365 0.290613
-0.731661 0.425081 0.308630
0.705637 0.439721 0.246636
0.684247 0.407085 0.198561
0.662335 0.362609 0.207029
0.729867 0.426889 0.675966
0.735642 0.390118 0.183504
0.733850 0.388622 0.249251
0.716692 0.403284 0.669325
0.746847 0.442058 0.408218
0.718317 0.424182 0.477281
0.657526 0.351223 0.263650
0.687071 0.370865 0.129552
0.697043 0.386130 0.526313
0.667648 0.443196 0.535481
0.673473 0.402377 0.536908
0.663620 0.443812 0.018963
0.745747 0.440490 0.245938
0.650723 0.374723 0.077494
0.713240 0.439012 0.352413
0.717394 0.447206 0.614913
0.665037 0.379193 0.002210
0.708540 0.354609 0.621642
0.709047 0.371413 0.672171
0.675801 0.394602 0.520631
0.730937 0.356559 0.495802
0.680248 0.406782 0.604544
0.704449 0.441927 0.318873
0.748442 0.433739 0.060467
0.748900 0.398175 0.458471
0.726410 0.376742 0.491804
0.733435 0.443392 0.628788
0.745438 0.423487 0.555941
0.690427 0.371372 0.488979
0.666773 0.440974 0.506253
0.680581 0.396504 0.010265
0.700633 0.401289 0.082745
0.676992 0.351630 0.176043
0.657639 0.379908 0.371094
0.723329 0.372983 0.139452
0.718851 0.389109 0.088572
0.696372 0.360857 0.050912
0.697857 0.418868 0.247711
0.744214 0.352293 0.254687
0.724369 0.426507 0.479652
0.733702 0.388149 0.276338
0.735854 0.423197 0.347773
0.746457 0.438863 0.283146
0.738742 0.428126 0.055816
0.675835 0.414642 0.075049
0.729299 0.389856 0.519719
0.650017 0.352592 0.613063
0.685672 0.448094 0.281442
0.674865 0.394698 0.562655
0.654859 0.380819 0.493030
0.656215 0.428326 0.253996
0.702006 0.396566 0.671095
0.714664 0.402068 0.139402
0.691879 0.352384 0.513443
0.682494 0.435454 0.146887
0.723735 0.409019 0.375075
0.651972 0.355424 0.387721
0.731596 0.417194 0.194655
0.721033 0.432483 0.287716
0.662421 0.436123 0.624559
0.686397 0.408101 0.544562
0.669569 0.376428 0.437399
0.664989 0.384144 0.398634
0.737376 0.424993 0.493425
0.748316 0.365793 0.116306
0.698970 0.407104 0.379799
0.654571 0.402958 0.422460
0.732559 0.416134 0.537735
0.731811 0.375645 0.027844
0.665027 0.378804 0.631006
0.692230 0.415255 0.668323
0.703638 0.404651 0.353262
0.716874 0.438946 0.292830
0.696030 0.430178 0.449926
0.728231 0.367072 0.236463
0.696160 0.393707 0.512212
0.738078 0.424386 0.311980
0.713538 0.443869 0.482923
0.732814 0.444438 0.678075
0.682013 0.419453 0.065148
0.717200 0.423559 0.457809
0.696481 0.434277 0.432757
0.703322 0.355299 0.578743
0.664633 0.383574 0.654903
0.747368 0.380972 0.299625
0.669266 0.419884 0.343675
0.734030 0.406608 0.690306
0.700367 0.444640 0.043682
0.682082 0.443657 0.575152
0.667284 0.397732 0.031302
0.740913 0.436403 0.447291
0.740544 0.372823 0.102397
0.713329 0.432303 0.636118
0.717130 0.434843 0.529625
0.741657 0.367775 0.464077
0.661102 0.372892 0.500125
0.688527 0.361848 0.467371
0.709356 0.360732 0.575885
0.690572 0.404777 0.480961
0.651765 0.374213 0.076489
0.681468 0.443497 0.121785
0.651351 0.359798 0.637344
0.651275 0.373399 0.126689
0.670536 0.445401 0.329871
0.682126 0.406560 0.097039
0.722406 0.353947 0.599772
0.703921 0.406637 0.077042
0.702927 0.447888 0.184665
0.683192 0.414824 0.495745
0.730432 0.440249 0.583372
0.708008 0.449122 0.658208
0.671037 0.383789 0.355888
0.714053 0.411870 0.341160
0.663026 0.367519 0.518975
0.671815 0.429377 0.069377
0.671714 0.394182 0.008427
0.709684 0.386089 0.389586
0.729816 0.436335 0.679653
0.724095 0.446150 0.619637
0.745473 0.365054 0.363378
0.680799 0.439494 0.615826
0.682684 0.377109 0.148950
0.656676 0.427966 0.384509
0.705477 0.398201 0.495050
0.709200 0.357347 0.509901
0.667338 0.403069 0.004813
0.664603 0.408891 0.065941
0.687588 0.363411 0.396308
0.746201 0.397059 0.563279
0.681907 0.363656 0.520798
0.701507 0.422117 0.384178
0.709076 0.428286 0.501065
0.728002 0.395569 0.352654
0.691480 0.363583 0.327173
0.706871 0.425952 0.459637
0.695263 0.418177 0.131927
0.684651 0.405597 0.635866
0.687339 0.384988 0.120580
0.717421 0.414528 0.089251
0.682021 0.379927 0.347187
0.738492 0.399674 0.467091
0.666214 0.424810 0.361373
0.747532 0.425829 0.305307
0.732277 0.442768 0.377549
0.655175 0.377429 0.067755
0.734282 0.399975 0.528761
0.719604 0.365704 0.556127
0.674930 0.362789 0.642381
0.666139 0.372922 0.179905
0.713179 0.445405 0.177501
0.712530 0.433665 0.133392
0.692591 0.410430 0.135543
0.723176 0.370555 0.158640
0.658784 0.376641 0.358341
0.703528 0.431301 0.480185
0.739742 0.419670 0.295911
0.660099 0.407209 0.338534
0.672990 0.354085 0.158226
0.700636 0.386324 0.430120
0.657660 0.400928 0.676088
0.689942 0.376207 0.321659
0.728566 0.432161 0.348640
0.652592 0.372814 0.259857
0.738753 0.430231 0.647668
0.684896 0.427899 0.000490
0.742539 0.420080 0.011543
0.724309 0.398142 0.655237
0.673248 0.403559 0.221478
0.743094 0.445236 0.045370
0.657528 0.439184 0.519099
0.659784 0.362239 0.562673
0.730938 0.441650 0.375757
0.716407 0.412082 0.512324
0.716928 0.417208 0.648189
0.710679 0.353966 0.417302
0.685343 0.416796 0.303664
0.703892 0.374152 0.405395
0.670360 0.356383 0.274492
0.733265 0.362104 0.550794
0.674895 0.438423 0.092271
0.737549 0.408308 0.282128
0.653449 0.395823 0.549406
0.697008 0.419441 0.476725
0.687153 0.386591 0.654246
0.655361 0.400697 0.594917
0.667211 0.405282 0.334954
0.669546 0.362145 0.539453
