ply
format ascii 1.0
element vertex 1200
property float x
property float y
property float z
end_header
<<<<<<< HEAD
0.365789 -0.018285 0.730252
0.270778 -0.346463 0.749092
-0.018729 -0.401813 0.754381
0.232197 0.093322 0.754748
-0.379040 0.281000 0.723576
-0.578033 0.293153 0.726597
0.550432 0.173253 0.712414
0.425388 -0.315732 0.781786
0.536036 -0.017562 0.755160
-0.245404 -0.378318 0.794652
0.006311 -0.405848 0.752933
0.592598 -0.457049 0.790772
0.284037 0.468802 0.771204
-0.771323 -0.024113 0.789770
-0.093596 0.286731 0.717298
-0.244340 0.068979 0.746590
0.578806 -0.310432 0.798606
-0.398610 0.208076 0.734003
0.122922 0.486750 0.721838
-0.082771 -0.093206 0.768124
0.066676 -0.305938 0.778395
-0.111107 0.078136 0.709756
-0.443934 0.300921 0.758712
0.763232 0.322616 0.787841
0.534913 -0.250950 0.711934
0.578953 -0.088571 0.748218
-0.780670 -0.475128 0.789390
0.524202 -0.462715 0.726765
0.232092 0.432383 0.701874
-0.155687 -0.389239 0.717398
-0.083897 -0.049434 0.722492
-0.412689 -0.364222 0.795514
0.781297 -0.361804 0.718746
0.203945 0.240964 0.746401
-0.403820 -0.366902 0.778695
-0.633693 -0.340205 0.728920
0.027982 0.195244 0.773914
0.266961 0.255087 0.748841
0.354205 -0.476315 0.705902
0.739152 -0.043334 0.774556
-0.459293 0.281467 0.732057
-0.149743 0.219478 0.794747
0.246398 0.002401 0.729825
0.239290 -0.289720 0.731291
-0.348929 -0.176563 0.762284
0.749880 -0.459328 0.751044
-0.636711 0.152083 0.715198
0.113952 0.360104 0.783980
0.107286 -0.280034 0.766802
-0.270010 0.452625 0.749685
-0.161133 -0.019988 0.774177
0.133854 -0.239937 0.702309
0.211378 -0.402231 0.742971
0.491879 0.313512 0.716603
0.169548 0.411211 0.785377
-0.425210 -0.492976 0.739529
0.265695 0.057900 0.715940
0.053633 0.099792 0.718677
0.512748 -0.370474 0.783107
0.777880 0.060541 0.757567
0.299620 -0.062301 0.789903
0.686988 0.333051 0.715698
-0.028750 0.470874 0.711617
-0.489789 -0.343406 0.774365
-0.445596 0.248066 0.778299
-0.128207 0.262458 0.756583
-0.655098 -0.231791 0.786900
0.615180 -0.424206 0.736695
0.418213 0.093125 0.700105
-0.265050 -0.223417 0.718509
0.430902 0.061549 0.751399
0.121745 0.352871 0.701666
0.754195 -0.165851 0.782072
-0.163101 0.449364 0.761072
0.035166 -0.215903 0.702831
-0.352894 0.208294 0.729817
-0.551565 -0.444594 0.736049
-0.359019 0.256087 0.762221
0.225461 -0.450106 0.739934
0.710912 0.375611 0.772148
-0.708020 0.388234 0.733676
0.287753 0.144125 0.787754
0.419032 0.119699 0.793129
0.146233 -0.389533 0.779773
0.224179 -0.069550 0.770550
-0.627768 0.358495 0.762947
-0.053211 -0.179921 0.754343
-0.795888 0.357010 0.759600
0.343558 0.336675 0.790862
-0.428722 0.126023 0.792983
-0.139827 -0.201849 0.755623
-0.158328 0.037929 0.787703
-0.046163 -0.140247 0.730109
-0.150788 -0.208612 0.709218
0.710247 0.494186 0.702952
-0.384733 -0.048366 0.730107
-0.548526 0.426216 0.762004
-0.223471 -0.177058 0.793160
0.024221 -0.178033 0.717089
-0.595262 0.275413 0.730320
0.473258 -0.147423 0.764129
-0.454062 -0.364282 0.701669
0.473898 0.205452 0.751918
-0.529087 0.042355 0.725561
-0.212045 -0.158719 0.767136
-0.591181 0.256845 0.790002
-0.095738 -0.030007 0.734424
0.274372 -0.229156 0.710948
-0.130401 0.281138 0.787983
-0.125381 0.314740 0.798885
-0.219427 0.431998 0.769675
0.128663 -0.087962 0.703415
-0.598254 -0.044929 0.712907
-0.316275 0.294698 0.759634
-0.046047 -0.252443 0.751846
0.730587 0.163428 0.769516
0.130249 -0.494206 0.727924
-0.126107 -0.129600 0.751143
0.270978 -0.031425 0.757026
0.083997 -0.023941 0.780979
0.388116 -0.290145 0.734574
-0.715600 -0.183073 0.777659
0.773267 -0.099538 0.712040
-0.253012 -0.372301 0.714395
-0.161967 -0.191313 0.765699
0.797053 -0.300111 0.717321
-0.238512 0.480393 0.740238
-0.385212 -0.270425 0.779417
-0.542911 -0.412011 0.703898
-0.720564 -0.060649 0.730056
0.511064 -0.493773 0.766583
-0.690610 0.166982 0.793216
0.360844 0.259398 0.720147
0.034692 -0.205207 0.705250
0.002496 -0.361919 0.703972
0.703944 0.030830 0.791077
0.237007 0.341350 0.776802
-0.138813 0.347560 0.743571
-0.344975 0.019363 0.716769
0.391310 0.258075 0.730140
-0.167922 -0.011871 0.731963
0.118838 -0.447980 0.721470
-0.119113 0.419116 0.738265
0.248032 -0.403298 0.791416
-0.049803 0.164420 0.705961
-0.636584 0.025113 0.797563
-0.425129 0.043788 0.760055
-0.588778 0.488436 0.762762
0.606273 0.171085 0.738598
0.108182 -0.024342 0.754450
0.402852 -0.463049 0.781876
0.464389 0.436918 0.766755
-0.625118 0.439770 0.707186
0.359227 0.263417 0.763580
0.071737 -0.415046 0.749166
-0.324382 -0.059399 0.714468
0.652091 0.256518 0.757418
-0.719997 -0.489787 0.736967
-0.264130 -0.034059 0.746326
0.228235 0.192196 0.729938
0.629611 -0.065654 0.713347
-0.056584 -0.350686 0.731806
0.374455 -0.458411 0.742316
0.726168 0.065302 0.793239
0.153368 -0.289385 0.797463
-0.356936 0.448037 0.772441
-0.336282 -0.124160 0.742368
-0.675794 -0.295618 0.773124
0.735419 -0.492478 0.798294
-0.431796 0.463305 0.779410
-0.200940 0.450495 0.792882
-0.021616 0.243652 0.714585
-0.112010 -0.033068 0.739070
0.654251 0.471467 0.708521
-0.524489 0.425659 0.791309
-0.612365 -0.423194 0.760521
0.243457 -0.046553 0.753462
0.596719 -0.348823 0.774420
-0.450135 -0.445217 0.726924
0.413429 -0.407796 0.787507
-0.181132 0.250308 0.754541
0.005327 -0.332264 0.715567
-0.739075 0.427253 0.759168
0.544092 -0.322128 0.743006
-0.058299 -0.157346 0.766577
-0.327585 0.356898 0.718207
0.724665 0.317364 0.759889
0.687132 0.236774 0.726590
0.549025 0.431167 0.751638
0.043247 0.039858 0.786825
0.157066 -0.008803 0.797980
-0.105905 0.335247 0.725578
-0.205922 0.208498 0.786398
-0.291366 0.387281 0.703436
0.310647 -0.065863 0.750217
0.626159 -0.100779 0.750225
0.584872 -0.222287 0.780311
0.746764 0.365364 0.768388
0.017224 0.313749 0.709491
-0.649523 0.151781 0.780571
-0.541082 0.219154 0.755953
-0.763899 -0.254296 0.714204
-0.276797 -0.408530 0.748804
0.243712 -0.439945 0.701231
-0.477128 0.257527 0.787894
0.145336 0.360742 0.718884
-0.585599 0.023481 0.755310
-0.158925 -0.442877 0.785750
-0.585487 0.254229 0.741852
0.157117 0.274286 0.760957
-0.162698 -0.439238 0.742011
0.762141 -0.377366 0.764865
-0.584884 -0.459173 0.706887
-0.274943 0.374661 0.748558
0.058993 0.026185 0.737913
0.305627 0.318224 0.799408
0.792571 0.374634 0.759253
-0.158464 0.135748 0.751909
-0.057220 0.496793 0.728219
0.397904 -0.056488 0.737604
0.451159 -0.325334 0.787357
0.322605 -0.107739 0.794948
0.271490 -0.432741 0.797993
-0.588329 -0.393495 0.777203
0.045638 0.138004 0.737142
-0.790236 0.073637 0.728421
0.591736 0.080614 0.726140
-0.572685 -0.185961 0.748469
0.786547 0.214929 0.741222
0.247113 -0.404421 0.738508
-0.665862 -0.144091 0.757957
0.562981 0.056263 0.724849
-0.121522 -0.311751 0.779349
0.356962 -0.223432 0.714139
-0.299771 0.321963 0.766095
-0.386935 0.064331 0.701729
-0.038032 -0.370602 0.718743
-0.756480 0.030175 0.761518
-0.029265 0.474727 0.749423
0.685146 -0.374252 0.708507
-0.304355 -0.146721 0.715870
-0.581212 -0.479151 0.725416
0.632296 -0.299736 0.771759
0.704906 0.308572 0.759090
0.293787 0.374418 0.786118
-0.696356 0.136272 0.743020
-0.554844 -0.096327 0.728042
0.275902 0.401974 0.731929
-0.223562 0.473516 0.733510
0.682126 0.222430 0.768316
-0.780395 0.226783 0.762715
-0.389961 0.043177 0.751951
0.138788 -0.111635 0.724330
-0.147281 0.003380 0.730958
-0.620541 0.220810 0.752073
0.170483 -0.032473 0.746264
-0.579615 0.317995 0.728386
0.104488 -0.432950 0.774388
0.148540 -0.306588 0.705612
0.741953 -0.282688 0.796184
-0.731076 -0.357747 0.745509
0.287310 -0.335386 0.793614
0.166236 0.161911 0.790506
0.431607 0.461498 0.779716
0.236426 0.229943 0.772400
-0.101650 0.232845 0.788697
0.211654 -0.270706 0.764455
-0.575296 0.100656 0.790706
0.324096 0.414036 0.712026
0.734495 0.289876 0.797900
0.407147 -0.470184 0.793882
0.521407 -0.125044 0.786588
-0.557496 0.386231 0.724902
-0.398746 -0.196365 0.799889
-0.328757 -0.420946 0.709260
-0.788670 -0.038131 0.742693
-0.101043 -0.249315 0.731099
-0.745003 0.354483 0.727533
-0.139364 -0.128940 0.758773
0.753060 -0.198450 0.759434
-0.152207 0.066955 0.783052
-0.450201 0.437045 0.731808
0.214117 -0.406603 0.739088
-0.612964 0.372203 0.731310
0.206011 0.248147 0.762215
0.212194 -0.178771 0.702588
-0.392398 -0.054549 0.757496
0.606361 -0.171075 0.732532
-0.490781 -0.324334 0.752182
-0.097378 -0.347506 0.723371
-0.654936 -0.139635 0.794391
0.218562 -0.056900 0.730804
0.589035 0.272318 0.733464
0.050466 -0.150658 0.760234
-0.169828 -0.136795 0.781127
0.034592 0.152579 0.706450
0.616596 0.110178 0.784960
-0.335896 -0.262729 0.742355
0.682841 -0.186808 0.734566
-0.603782 0.413215 0.724926
-0.416979 0.086522 0.758976
-0.436659 -0.148910 0.764211
0.171935 -0.179941 0.750878
-0.463413 0.176046 0.787271
-0.572059 -0.093780 0.789617
-0.279441 0.317591 0.724527
0.061712 -0.059456 0.747714
0.398470 0.100881 0.752632
0.120104 0.005436 0.779173
-0.308441 0.111885 0.701424
0.646597 -0.190944 0.791015
0.166475 0.290526 0.708528
0.211221 0.283340 0.785536
0.154699 -0.441333 0.720239
-0.257678 -0.041233 0.779450
0.048347 -0.153052 0.784762
0.729769 -0.415789 0.760352
0.774593 0.224605 0.772210
0.603718 0.308512 0.758567
0.083804 0.458688 0.707472
0.457953 -0.214730 0.740221
-0.481980 -0.065279 0.707716
0.615133 0.331631 0.790708
0.293000 -0.259972 0.743728
-0.133720 0.471613 0.733080
-0.487397 -0.453442 0.792211
-0.539925 0.388745 0.707548
0.274166 0.322568 0.760193
0.246863 0.184617 0.792061
0.013094 0.189304 0.707470
0.320334 0.167334 0.714634
-0.726344 0.033909 0.719719
0.530724 0.137863 0.765305
0.595433 0.480340 0.744104
-0.288458 0.386135 0.755341
0.660514 0.218636 0.700702
-0.064596 -0.255960 0.799935
0.463880 0.334250 0.797014
0.764464 -0.429147 0.787155
-0.062583 -0.079411 0.744831
0.436847 -0.436224 0.714616
0.155348 -0.070768 0.721070
-0.365779 0.481261 0.752787
-0.769917 0.427950 0.726684
0.019548 0.169556 0.745925
0.012536 -0.140117 0.735432
-0.509415 -0.003071 0.741716
0.338334 0.217158 0.700624
0.058126 0.140190 0.747172
-0.695884 0.411204 0.790401
0.209632 -0.452336 0.716441
0.624906 0.373332 0.708583
0.015347 -0.092291 0.727420
-0.337881 0.287507 0.780129
-0.125923 0.191693 0.747364
0.710680 0.247964 0.737411
-0.561053 0.209081 0.731390
-0.790248 0.308036 0.763735
-0.528292 -0.010119 0.766714
-0.277742 0.336365 0.747572
0.233946 0.371239 0.701093
-0.744493 -0.304396 0.723410
0.214253 0.340975 0.719651
-0.687405 0.478037 0.727465
-0.570960 -0.424055 0.703320
0.355155 -0.408065 0.706910
0.718060 -0.342050 0.762757
0.697745 0.213023 0.755664
-0.435247 -0.243336 0.731020
-0.233742 0.126579 0.765437
-0.661620 0.272660 0.745441
0.052240 -0.299383 0.712103
-0.017173 -0.291647 0.749771
0.427968 0.119031 0.788077
-0.345837 -0.419590 0.730585
-0.384356 0.052589 0.783900
0.097404 -0.022607 0.786208
0.223736 -0.380521 0.775181
-0.067441 0.147667 0.794830
-0.716117 0.300563 0.701241
0.051411 -0.197589 0.771768
-0.345128 0.176788 0.796179
-0.132745 0.281665 0.702040
0.238476 -0.239431 0.737353
-0.378197 0.134208 0.791654
0.055398 0.193624 0.753793
-0.567889 0.355818 0.704395
0.355447 0.422692 0.750283
-0.071935 0.208064 0.764885
-0.270886 0.097655 0.768855
-0.294145 -0.482980 0.774180
0.097111 0.033919 0.748396
0.715110 0.289517 0.717451
0.171821 -0.446761 0.738248
0.215797 -0.113087 0.781192
-0.331953 0.032674 0.743725
-0.404950 0.403671 0.751629
0.026460 -0.326408 0.702062
-0.043538 -0.259130 0.782426
-0.799717 0.026475 0.792121
0.630246 0.158576 0.727313
-0.621100 -0.321191 0.716508
0.096466 0.233974 0.731926
-0.396509 -0.482376 0.722630
0.409103 0.067144 0.720461
-0.432458 0.386890 0.795168
-0.528248 0.001455 0.749874
0.346235 0.037170 0.773114
0.667279 -0.005602 0.799970
0.380658 -0.364339 0.775045
0.363497 0.251489 0.721356
-0.694561 -0.254639 0.707663
0.581680 -0.366704 0.765296
-0.549722 0.036262 0.789090
-0.256866 -0.142225 0.741390
0.445780 0.219984 0.797957
0.001368 0.334309 0.741052
0.277708 0.325012 0.716733
-0.311997 0.284822 0.762803
-0.396384 0.199118 0.771331
0.302083 0.439436 0.778592
0.074348 -0.483446 0.781801
-0.277186 -0.158687 0.733055
0.398040 -0.414417 0.749454
0.524282 0.491821 0.776162
0.418797 -0.181933 0.768033
-0.161833 0.134374 0.734561
-0.253322 0.387828 0.799535
-0.166607 0.079020 0.748701
0.243703 -0.031689 0.798935
-0.220116 0.489616 0.795368
0.123656 -0.164130 0.771521
-0.300459 -0.446721 0.708323
0.536215 0.278069 0.738492
-0.597660 -0.114984 0.771385
0.061261 0.048653 0.726639
0.208843 0.486390 0.759792
0.142116 -0.205200 0.705371
-0.322818 -0.138195 0.706408
-0.289275 0.362429 0.732359
0.253676 -0.167953 0.782946
-0.616601 -0.412589 0.786360
-0.182228 0.314443 0.714543
0.330813 0.044051 0.798841
-0.632218 0.170876 0.723385
-0.414308 0.170264 0.799772
0.716998 -0.268097 0.785813
-0.430714 -0.269714 0.791850
-0.192356 0.258405 0.733025
0.367835 -0.220917 0.731664
-0.338387 -0.307056 0.751212
-0.067086 0.402490 0.719863
-0.473376 -0.239628 0.787801
0.314493 0.395218 0.703311
-0.293101 -0.133444 0.747391
-0.619434 -0.497397 0.722340
0.720500 -0.208255 0.751141
0.736913 -0.083199 0.733774
-0.730321 -0.438629 0.794989
-0.562535 0.001559 0.783869
-0.166029 0.067449 0.721720
0.696110 -0.078664 0.767361
0.089399 0.254683 0.725457
0.767192 -0.131425 0.743498
0.459355 0.106488 0.768682
-0.020395 -0.490235 0.739524
0.167877 -0.302415 0.785296
0.497481 0.308411 0.762898
-0.786749 0.120494 0.795386
-0.171660 -0.384735 0.719409
-0.495324 -0.200626 0.748294
0.548325 0.048833 0.719120
-0.437789 0.359509 0.766789
0.791535 0.262607 0.790867
0.699876 0.349726 0.702868
0.159300 -0.227256 0.736120
-0.370683 0.160072 0.786240
0.102156 0.209090 0.767787
0.263542 -0.440029 0.768804
-0.112744 0.033895 0.756370
0.101579 -0.261502 0.762363
-0.394170 -0.166692 0.786656
0.423192 -0.069095 0.710284
-0.157470 -0.493628 0.724261
-0.465375 0.390914 0.793138
-0.150265 -0.188238 0.799492
0.640019 0.404037 0.787951
-0.518192 0.340146 0.734825
0.266785 -0.312540 0.737335
0.711210 0.060196 0.706113
-0.418356 -0.465736 0.725180
0.115190 0.381324 0.751909
-0.625016 0.197346 0.743291
-0.358030 -0.173591 0.755805
0.560610 -0.019184 0.765813
-0.163402 -0.335448 0.768014
-0.458356 -0.379445 0.784453
0.353663 -0.215780 0.739612
0.282588 -0.237692 0.721954
0.398031 -0.387402 0.717164
-0.677661 0.426873 0.723817
-0.491850 -0.113490 0.708127
-0.452330 -0.303711 0.792208
0.596129 -0.364292 0.702845
0.501386 -0.336717 0.713035
0.353282 -0.283595 0.753932
-0.108651 0.127505 0.724108
-0.506442 0.247944 0.701620
0.769855 -0.035989 0.724042
0.482789 -0.265094 0.763272
0.520997 0.350299 0.721158
0.059396 0.062047 0.798014
-0.529141 0.411203 0.748804
0.479463 -0.190812 0.721636
-0.323843 0.223354 0.733457
0.386296 -0.126786 0.772928
0.023649 0.087746 0.726859
0.772429 0.234856 0.705510
0.109291 -0.114633 0.714184
0.164881 -0.456823 0.738902
0.518035 0.088923 0.777609
-0.432112 0.438518 0.720489
0.025570 0.024353 0.716450
0.163203 -0.462670 0.773911
0.487390 0.002960 0.783299
0.609404 0.343634 0.789624
-0.200926 0.141988 0.727068
-0.741330 -0.374103 0.783372
-0.411895 0.218752 0.777008
-0.472842 0.019068 0.734520
0.176424 0.429343 0.770963
0.225743 0.281208 0.766852
-0.376362 0.215508 0.769858
-0.363709 -0.432386 0.755599
-0.771333 -0.292261 0.779082
0.297480 -0.071551 0.774871
0.026559 0.263247 0.775131
0.394765 -0.469020 0.755710
-0.729007 -0.089299 0.774524
-0.062404 -0.268804 0.798276
-0.026066 -0.030170 0.700995
-0.396520 0.420990 0.716056
-0.449590 -0.254463 0.787589
0.684672 -0.119910 0.766004
0.143547 -0.296267 0.709704
0.698639 0.270370 0.776723
-0.339012 0.282391 0.748917
0.085142 -0.409663 0.789917
0.744401 0.425009 0.724522
-0.694987 0.094465 0.714662
-0.518056 0.181805 0.726767
-0.687900 -0.374507 0.762313
-0.619471 0.118118 0.762131
0.681914 -0.045070 0.799896
0.088359 -0.388444 0.717291
0.538646 -0.306121 0.790657
0.656804 -0.182909 0.788537
-0.786460 0.354104 0.721154
-0.312252 0.244300 0.726549
0.060065 0.178103 0.711654
0.232296 0.021730 0.769863
-0.631711 0.182452 0.724677
0.721723 0.240403 0.782123
-0.195877 0.210217 0.769149
0.326244 -0.328222 0.722539
0.203759 0.207678 0.785164
0.305709 -0.290805 0.733070
-0.160429 -0.105105 0.795542
0.041540 0.338591 0.705435
-0.051879 0.109899 0.776785
0.505794 0.375957 0.747272
0.443000 0.142326 0.788605
0.179336 -0.030344 0.791806
0.099582 0.278488 0.750233
-0.105387 -0.301956 0.772119
0.347447 0.273666 0.723917
-0.720269 0.459000 0.707869
0.027732 -0.250843 0.715535
0.301615 0.173605 0.745532
0.154402 0.476848 0.744159
0.296658 -0.444527 0.708093
-0.040658 -0.003874 0.789657
-0.780343 0.082217 0.782576
0.463871 -0.303205 0.782606
0.696150 0.037156 0.721126
0.657292 -0.304243 0.783263
0.501835 -0.279567 0.703858
0.086835 -0.053244 0.755663
-0.412354 -0.407472 0.771065
-0.774113 0.329035 0.784053
-0.736542 -0.227529 0.754820
0.414019 -0.024532 0.760833
0.702554 -0.146482 0.785877
-0.202036 0.124803 0.785545
-0.556065 -0.136333 0.752200
-0.256946 -0.359541 0.790871
0.768024 -0.462835 0.700365
-0.720478 -0.223074 0.721025
-0.196900 0.163173 0.767458
0.452648 0.288815 0.709167
-0.666591 -0.388184 0.190122
-0.677099 -0.436024 0.127886
-0.722194 -0.353316 0.017413
-0.746722 -0.378190 0.575762
-0.740804 -0.352198 0.571777
-0.676400 -0.410283 0.369057
-0.668649 -0.410279 0.155215
-0.656586 -0.364222 0.036287
-0.682373 -0.403822 0.364701
-0.659357 -0.412545 0.620247
-0.724903 -0.368146 0.241902
-0.739003 -0.420965 0.296007
-0.711808 -0.420970 0.355858
-0.706328 -0.360656 0.494154
-0.661140 -0.434861 0.564069
-0.743873 -0.427030 0.503473
-0.689412 -0.407451 0.038791
-0.658106 -0.398184 0.393422
-0.664230 -0.437947 0.074636
-0.748393 -0.400441 0.112875
-0.677522 -0.350969 0.157865
-0.671677 -0.366506 0.301868
-0.668896 -0.398654 0.176117
-0.688853 -0.394265 0.001230
-0.745848 -0.398624 0.182050
-0.742294 -0.357306 0.191230
-0.663800 -0.366656 0.619480
-0.697571 -0.444397 0.339003
-0.747860 -0.422764 0.607637
-0.715216 -0.366144 0.024696
-0.728824 -0.370696 0.680578
-0.711756 -0.409728 0.580097
-0.653729 -0.411073 0.055197
-0.699858 -0.447320 0.229498
-0.709498 -0.381112 0.391303
-0.686239 -0.397482 0.200723
-0.681533 -0.372047 0.332154
-0.661146 -0.420071 0.183853
-0.652996 -0.408254 0.369171
-0.657205 -0.374821 0.189615
-0.653347 -0.363440 0.559916
-0.733862 -0.362238 0.630123
-0.722436 -0.371852 0.033905
-0.695263 -0.413704 0.526345
-0.658641 -0.395976 0.048101
-0.686628 -0.408866 0.069000
-0.654015 -0.362637 0.146708
-0.675938 -0.441081 0.325969
-0.748372 -0.417211 0.198945
-0.698629 -0.411140 0.480457
-0.695165 -0.403762 0.313130
-0.651720 -0.375579 0.469717
-0.692300 -0.363943 0.127656
-0.652688 -0.350565 0.434191
-0.714091 -0.361136 0.042758
-0.658814 -0.419237 0.602723
-0.677107 -0.391809 0.581601
-0.748941 -0.354143 0.041913
-0.717592 -0.424645 0.200302
-0.665421 -0.411943 0.675505
-0.727476 -0.447067 0.580030
-0.680693 -0.356450 0.086132
-0.708732 -0.446406 0.158959
-0.731867 -0.429168 0.538014
-0.734557 -0.416302 0.597817
-0.717019 -0.414217 0.577470
-0.679130 -0.404658 0.077569
-0.674945 -0.444536 0.529062
-0.719723 -0.433487 0.182206
-0.734358 -0.354160 0.669031
-0.709413 -0.443311 0.289186
-0.699619 -0.430164 0.010870
-0.669224 -0.437410 0.643768
-0.748818 -0.351231 0.525992
-0.711714 -0.428758 0.575512
-0.655617 -0.400213 0.190205
-0.684340 -0.404261 0.427425
-0.682876 -0.383078 0.639993
-0.674844 -0.409510 0.047844
-0.708928 -0.387107 0.026348
-0.720768 -0.365437 0.087575
-0.732133 -0.357433 0.296379
-0.677508 -0.416992 0.024672
-0.698611 -0.429349 0.137964
-0.716987 -0.384291 0.409061
-0.740239 -0.375245 0.318239
-0.718104 -0.371676 0.267033
-0.746155 -0.360450 0.664834
-0.671076 -0.446790 0.339846
-0.658398 -0.391418 0.530767
-0.724812 -0.428420 0.479156
-0.732073 -0.391393 0.102060
-0.655986 -0.409136 0.572158
-0.681797 -0.355801 0.634427
-0.650860 -0.391492 0.263551
-0.740404 -0.435518 0.610367
-0.715354 -0.361207 0.651780
-0.679933 -0.370096 0.302044
-0.686188 -0.362566 0.293365
-0.650885 -0.446892 0.553416
-0.665925 -0.425347 0.456528
-0.717546 -0.431957 0.435203
-0.745666 -0.425097 0.067554
-0.665938 -0.408085 0.494022
-0.686288 -0.368212 0.256921
-0.729816 -0.353990 0.085290
-0.658833 -0.438385 0.213069
-0.682117 -0.410208 0.254314
-0.670155 -0.388359 0.513682
-0.693140 -0.356954 0.170303
-0.654088 -0.439342 0.109030
-0.714698 -0.410702 0.283185
-0.747122 -0.425387 0.337899
-0.718627 -0.408130 0.326757
-0.663269 -0.386927 0.633136
-0.712617 -0.416262 0.527331
-0.722569 -0.446843 0.654745
-0.734375 -0.436065 0.619515
-0.690979 -0.366398 0.044746
-0.743929 -0.411855 0.008287
-0.685588 -0.435577 0.429777
-0.713409 -0.442434 0.253360
-0.720464 -0.441001 0.555213
-0.660218 -0.436320 0.516774
-0.696885 -0.410847 0.459772
-0.665143 -0.364414 0.230584
-0.694987 -0.365824 0.118912
-0.734631 -0.443063 0.379425
-0.734772 -0.410858 0.010483
-0.749257 -0.369695 0.536879
-0.686544 -0.412341 0.036281
-0.724918 -0.398520 0.574581
-0.738131 -0.377572 0.401657
-0.679282 -0.433346 0.212397
-0.723068 -0.382020 0.502684
-0.742885 -0.403553 0.466161
-0.736884 -0.417756 0.285793
-0.688821 -0.369842 0.548342
-0.724530 -0.364557 0.276337
-0.656913 -0.416088 0.269427
-0.709529 -0.446789 0.540808
-0.679685 -0.429790 0.665955
-0.662489 -0.442419 0.492034
-0.686787 -0.407381 0.487730
-0.689057 -0.383618 0.183229
-0.692696 -0.407189 0.661047
-0.663467 -0.378086 0.133403
-0.665777 -0.390489 0.446473
-0.671251 -0.392396 0.643499
-0.671371 -0.379287 0.008813
0.714733 -0.368016 0.608607
0.740508 -0.399191 0.179602
0.744925 -0.434988 0.264781
0.729275 -0.383300 0.477802
0.713783 -0.379381 0.305309
0.735739 -0.353410 0.523410
0.730338 -0.421559 0.294815
0.742078 -0.435679 0.640536
0.679736 -0.402977 0.425484
0.745951 -0.352033 0.427436
0.655935 -0.396085 0.236857
0.652759 -0.393369 0.141947
0.704206 -0.407802 0.394139
0.709132 -0.423683 0.496046
0.711520 -0.367851 0.513826
0.683300 -0.390041 0.454191
0.652258 -0.374110 0.124160
0.723541 -0.386728 0.072204
0.658509 -0.403559 0.658059
0.675864 -0.388045 0.267693
0.692005 -0.357250 0.097242
0.747843 -0.396278 0.052141
0.710366 -0.405200 0.442728
0.667570 -0.405213 0.698233
0.713800 -0.415780 0.031505
0.685818 -0.449685 0.621679
0.732000 -0.413809 0.012767
0.669702 -0.397427 0.324139
0.655648 -0.435657 0.424642
0.651227 -0.425970 0.599890
0.735419 -0.350031 0.281377
0.737138 -0.436992 0.189790
0.749868 -0.362185 0.549262
0.720938 -0.411263 0.105870
0.744747 -0.398730 0.346095
0.734722 -0.424014 0.693856
0.731196 -0.367175 0.305493
0.737301 -0.362141 0.018181
0.659623 -0.396490 0.543934
0.668243 -0.446252 0.215084
0.747089 -0.356002 0.471170
0.690338 -0.400195 0.236558
0.686416 -0.417351 0.440948
0.748490 -0.389869 0.317403
0.686833 -0.417839 0.084554
0.732011 -0.354281 0.097388
0.724261 -0.380113 0.609859
0.688277 -0.397172 0.182874
0.747495 -0.372026 0.153967
0.650858 -0.431189 0.226366
0.676498 -0.383922 0.672065
0.745266 -0.401745 0.389808
0.667641 -0.418763 0.281842
0.721808 -0.447558 0.399601
0.737916 -0.387411 0.065296
0.729439 -0.360050 0.197813
0.659523 -0.436698 0.088749
0.707818 -0.392722 0.432115
0.718674 -0.445757 0.033842
0.748960 -0.372000 0.536558
0.733795 -0.411916 0.649497
0.714831 -0.398956 0.668538
0.702078 -0.414773 0.168258
0.654549 -0.418311 0.448375
0.722332 -0.440220 0.236951
0.735715 -0.399742 0.195553
0.716458 -0.363057 0.464576
0.703965 -0.372042 0.023085
0.670713 -0.443467 0.138071
0.697506 -0.397247 0.161278
0.662804 -0.439502 0.007682
0.655816 -0.354934 0.178460
0.739968 -0.353211 0.404865
0.681589 -0.385460 0.618711
0.692479 -0.431092 0.484480
0.676039 -0.351116 0.629242
0.669195 -0.374342 0.193411
0.700104 -0.446563 0.160437
0.746465 -0.399950 0.620138
0.684387 -0.378341 0.279696
0.671967 -0.405910 0.195675
0.655210 -0.415269 0.559620
0.700139 -0.433601 0.218884
0.697473 -0.391372 0.423141
0.654063 -0.391225 0.219879
0.663162 -0.365429 0.576960
0.693479 -0.357957 0.065279
0.652870 -0.403502 0.098160
0.716519 -0.414038 0.452454
0.713883 -0.437096 0.653538
0.683183 -0.427618 0.103396
0.651626 -0.350389 0.505254
0.660813 -0.386782 0.675431
0.660618 -0.396084 0.610109
0.662552 -0.410078 0.416299
0.658402 -0.373719 0.115056
0.727486 -0.411981 0.558899
0.710847 -0.396727 0.371216
0.693314 -0.357627 0.588215
0.682797 -0.414254 0.025680
0.746622 -0.433007 0.619092
0.688040 -0.438551 0.182034
0.744071 -0.420806 0.359804
0.730461 -0.371603 0.665342
0.662312 -0.404285 0.219673
0.743832 -0.366013 0.238846
0.699909 -0.359085 0.307395
0.725231 -0.415177 0.457966
0.736009 -0.399236 0.581487
0.697474 -0.380984 0.107074
0.707966 -0.428476 0.552325
0.655638 -0.404610 0.210177
0.732352 -0.429927 0.527734
0.729184 -0.382101 0.469873
0.706306 -0.435005 0.687608
0.733431 -0.359768 0.262265
0.668008 -0.356195 0.642507
0.664505 -0.394372 0.635218
0.671981 -0.365194 0.385413
0.703345 -0.422661 0.083589
0.711149 -0.408790 0.454008
0.701294 -0.389777 0.235437
0.654869 -0.443067 0.023051
0.722138 -0.398241 0.434570
0.717799 -0.398703 0.688533
0.687760 -0.378739 0.228213
0.704474 -0.423178 0.370384
0.709037 -0.431093 0.123666
0.711366 -0.371500 0.673976
0.652783 -0.427249 0.060130
0.740816 -0.433474 0.289839
0.712356 -0.423275 0.446089
0.740082 -0.422087 0.181440
0.670150 -0.424482 0.329730
0.698834 -0.447921 0.565094
0.694122 -0.436955 0.367584
0.659752 -0.413084 0.691088
0.677665 -0.374321 0.247911
0.737825 -0.446069 0.694788
0.739021 -0.378457 0.281096
0.664110 -0.364666 0.474571
0.721659 -0.415605 0.126901
0.686243 -0.377820 0.434163
0.742124 -0.419028 0.171181
0.742840 -0.364273 0.243543
0.695695 -0.391506 0.445044
0.721588 -0.432755 0.242512
0.682119 -0.441884 0.447034
0.732908 -0.369680 0.122656
0.683687 -0.364927 0.258116
-0.683880 0.427302 0.449304
-0.658545 0.431268 0.072591
-0.716591 0.422264 0.342741
-0.685741 0.417776 0.556795
-0.671316 0.384066 0.687252
-0.654983 0.383879 0.637122
-0.730916 0.409591 0.006781
-0.720847 0.355190 0.245088
-0.724042 0.351839 0.532470
-0.694240 0.406653 0.288230
-0.669260 0.402005 0.414243
-0.728505 0.439087 0.663105
-0.686727 0.421716 0.682460
-0.656123 0.439754 0.230777
-0.685028 0.372666 0.217787
-0.726590 0.371267 0.689189
-0.678866 0.358067 0.212799
-0.680412 0.379869 0.260633
-0.726156 0.402905 0.105947
-0.740347 0.427303 0.555058
-0.652442 0.440070 0.169382
-0.662123 0.380779 0.003360
-0.730163 0.434705 0.109411
-0.656831 0.430956 0.453143
-0.682524 0.445267 0.424511
-0.691145 0.424852 0.667127
-0.671669 0.409549 0.084028
-0.720476 0.444138 0.210144
-0.695485 0.393221 0.194926
-0.733318 0.427291 0.165445
-0.695237 0.434914 0.450905
-0.671480 0.418005 0.107270
-0.677877 0.412785 0.190559
-0.655279 0.350421 0.150729
-0.688176 0.389242 0.090661
-0.686110 0.391774 0.391418
-0.687184 0.376128 0.521674
-0.740259 0.403511 0.429958
-0.669467 0.353121 0.008354
-0.681552 0.405450 0.367166
-0.728437 0.437330 0.299696
-0.744241 0.367260 0.136185
-0.673752 0.446570 0.610714
-0.738335 0.384105 0.669351
-0.665305 0.376171 0.065861
-0.653964 0.442819 0.437193
-0.658887 0.373653 0.532902
-0.709369 0.439018 0.268881
-0.699038 0.401882 0.386454
-0.657900 0.406616 0.586447
-0.677614 0.353251 0.637220
-0.662639 0.415248 0.491649
-0.714790 0.436378 0.364356
-0.679841 0.423693 0.156500
-0.677487 0.403595 0.430418
-0.658401 0.429721 0.585228
-0.658202 0.436242 0.109831
-0.686879 0.435048 0.003887
-0.720550 0.411441 0.180193
-0.653011 0.407430 0.592887
-0.732201 0.384501 0.030502
-0.659936 0.388665 0.038375
-0.740006 0.400482 0.615776
-0.706268 0.378937 0.573041
-0.726418 0.421413 0.185186
-0.743723 0.415641 0.327439
-0.724774 0.426599 0.110666
-0.691973 0.440941 0.413852
-0.720646 0.396330 0.101612
-0.672807 0.412646 0.277459
-0.718457 0.352074 0.697747
-0.657606 0.372727 0.074124
-0.705678 0.428534 0.199752
-0.675250 0.385050 0.220070
-0.722060 0.375533 0.317881
-0.734419 0.427664 0.407940
-0.666519 0.406253 0.243353
-0.699072 0.363350 0.465262
-0.656524 0.406492 0.194423
-0.748455 0.367148 0.333649
-0.668685 0.421366 0.324378
-0.657813 0.355847 0.252232
-0.673361 0.449483 0.540350
-0.747023 0.405401 0.449649
-0.738015 0.359927 0.100743
-0.669004 0.409750 0.095488
-0.661191 0.371624 0.272538
-0.736897 0.394546 0.324550
-0.704586 0.410946 0.683755
-0.692141 0.397682 0.125631
-0.699165 0.419474 0.395264
-0.688187 0.428303 0.102294
-0.707427 0.440615 0.491204
-0.739602 0.377832 0.487023
-0.714479 0.428257 0.137826
-0.681006 0.371341 0.443721
-0.719375 0.363061 0.378679
-0.744370 0.372901 0.559659
-0.721813 0.397551 0.428608
-0.690684 0.428287 0.419566
-0.690450 0.382356 0.483983
-0.684954 0.382817 0.688491
-0.679376 0.419836 0.541543
-0.705512 0.416081 0.159824
-0.717993 0.393812 0.120718
-0.654691 0.449875 0.361620
-0.701701 0.397906 0.592370
-0.685716 0.424316 0.545686
-0.691592 0.386025 0.428183
-0.685007 0.434309 0.535662
-0.704116 0.412174 0.258756
-0.749705 0.438362 0.119700
-0.685305 0.447071 0.286166
-0.702229 0.366385 0.692915
-0.683857 0.381166 0.315852
-0.704723 0.435330 0.461353
-0.744016 0.372064 0.457164
-0.651934 0.406302 0.523781
-0.677005 0.415476 0.557484
-0.656989 0.353190 0.013479
-0.708534 0.441367 0.341485
-0.733420 0.410882 0.521307
-0.734929 0.419446 0.536576
-0.749409 0.430096 0.345096
-0.741511 0.351156 0.318765
-0.685975 0.371973 0.454729
-0.705891 0.415704 0.662767
-0.731650 0.351023 0.328424
-0.709874 0.377888 0.559945
-0.717716 0.353156 0.163662
-0.661839 0.418219 0.580853
-0.707127 0.385064 0.634077
-0.710628 0.398820 0.298403
-0.730932 0.447517 0.101669
-0.710813 0.374456 0.426342
-0.708568 0.441849 0.464284
-0.652705 0.357146 0.363565
-0.663674 0.439664 0.281920
-0.686995 0.416896 0.324079
-0.736701 0.356960 0.611045
-0.747395 0.368668 0.063323
-0.747769 0.412687 0.445649
-0.657359 0.421342 0.317826
-0.704396 0.375711 0.378971
-0.731992 0.398339 0.486308
-0.660186 0.363869 0.161900
-0.743807 0.424540 0.248455
-0.665048 0.396367 0.008058
-0.674896 0.443852 0.690709
-0.722072 0.369988 0.649017
0.690528 0.413858 0.146750
0.743219 0.434683 0.523950
0.720739 0.358700 0.441265
0.716739 0.388144 0.649219
0.663291 0.356297 0.145164
0.749771 0.371982 0.442136
0.681350 0.373035 0.193215
0.728889 0.407283 0.125330
0.663979 0.372112 0.299725
0.727892 0.356011 0.067326
0.668613 0.352624 0.511601
0.727592 0.429358 0.063494
0.680318 0.380211 0.615228
0.651469 0.373637 0.500284
0.651667 0.384852 0.400877
0.710091 0.413909 0.065905
0.701603 0.438331 0.370339
0.667208 0.420583 0.600711
0.743588 0.359344 0.288383
0.699697 0.359118 0.350617
0.664202 0.382478 0.367640
0.741766 0.357366 0.326715
0.709836 0.357115 0.364340
0.653604 0.353618 0.226769
0.703337 0.406470 0.204021
0.746851 0.445489 0.226152
0.720296 0.365124 0.471970
0.690161 0.383528 0.035835
0.749338 0.403391 0.009254
0.742503 0.384710 0.495319
0.701527 0.420389 0.351422
0.685373 0.391759 0.490569
0.683297 0.435045 0.693084
0.702937 0.440024 0.101977
0.695472 0.384509 0.552183
0.730607 0.397376 0.050771
0.749375 0.440951 0.209776
0.724354 0.363813 0.146086
0.719942 0.377201 0.438777
0.720430 0.364965 0.063827
0.738574 0.448854 0.282986
0.723481 0.430392 0.622044
0.674169 0.389835 0.296888
0.662918 0.363508 0.505503
0.747463 0.351086 0.023181
0.662918 0.413489 0.141244
0.683730 0.407767 0.215060
0.664985 0.383373 0.183979
0.668438 0.352804 0.393191
0.688762 0.362260 0.126496
0.653611 0.375182 0.136628
0.686389 0.363562 0.096641
0.745520 0.448271 0.063866
0.655524 0.427417 0.319036
0.742826 0.367839 0.531288
0.654914 0.395005 0.294426
0.700193 0.446578 0.531484
0.653176 0.407036 0.260236
0.746640 0.399690 0.353497
0.682514 0.449148 0.118947
0.684574 0.396405 0.267526
0.736939 0.416283 0.399975
0.727597 0.440717 0.691474
0.652260 0.411415 0.651825
0.676840 0.389562 0.513898
0.710549 0.357579 0.505051
0.667686 0.378985 0.207134
0.674172 0.357580 0.000288
0.709347 0.357225 0.037176
0.695425 0.438268 0.037001
0.675583 0.413283 0.546026
0.650190 0.406097 0.032845
0.741755 0.350102 0.278809
0.728798 0.351172 0.645357
0.732289 0.440101 0.649029
0.661939 0.398038 0.425242
0.747860 0.434165 0.523414
0.662354 0.373561 0.237906
0.666311 0.431076 0.550749
0.718455 0.444863 0.078626
0.748345 0.377697 0.566677
0.652613 0.420122 0.659192
0.738663 0.394447 0.335613
0.709777 0.384635 0.284121
0.737763 0.386355 0.350033
0.711521 0.434950 0.383498
0.742165 0.416338 0.368317
0.694524 0.425643 0.342032
0.732641 0.397119 0.039538
0.723224 0.380299 0.339138
0.748508 0.418089 0.371076
0.663802 0.427295 0.245830
0.740919 0.447848 0.332494
0.665907 0.372352 0.505882
0.682432 0.385938 0.350712
0.651253 0.368991 0.261140
0.651772 0.433683 0.492974
0.743423 0.355483 0.043242
0.735029 0.446843 0.066944
0.729723 0.393981 0.014196
0.721649 0.405787 0.442586
0.718875 0.368015 0.318104
0.726547 0.401176 0.077716
0.724795 0.423372 0.411245
0.732085 0.366634 0.661401
0.722853 0.406486 0.133663
0.655628 0.384793 0.356644
0.665874 0.402547 0.081198
0.731806 0.371373 0.314263
0.654389 0.404221 0.250530
0.684943 0.443917 0.118643
0.724794 0.387707 0.284681
0.677902 0.402445 0.339763
0.681161 0.364708 0.160080
0.726662 0.441532 0.188506
0.671601 0.350222 0.681022
0.716302 0.398978 0.158717
0.695989 0.434258 0.530810
0.670987 0.442185 0.051957
0.734840 0.387436 0.653341
0.715049 0.432789 0.215664
0.676368 0.382178 0.502839
0.679561 0.417250 0.347053
0.736923 0.442590 0.311115
0.676925 0.404763 0.259438
0.698584 0.419854 0.528797
0.741400 0.431836 0.204753
0.730886 0.417285 0.117850
0.737697 0.417850 0.143327
0.743591 0.384600 0.181274
0.660549 0.427898 0.608489
0.710695 0.368524 0.137696
0.694855 0.424537 0.147134
0.697882 0.394461 0.214580
0.652946 0.362395 0.270316
0.748638 0.442653 0.540086
0.725366 0.377371 0.398946
0.679734 0.369724 0.316901
0.698738 0.399541 0.293351
0.705269 0.414144 0.347402
0.680913 0.378100 0.068098
0.733610 0.446128 0.316429
0.724111 0.424345 0.417403
0.738436 0.395231 0.333395
0.716308 0.420436 0.095207
0.658562 0.388004 0.649940
0.725695 0.387621 0.568463
0.739244 0.401083 0.505609
0.657252 0.366423 0.012408
